ncols         596
nrows         32
xllcorner     252801.679097
yllcorner     4224944.35252
cellsize      90
NODATA_value  -9999
2582 2602 2621 2621 2623 2611 2568 2508 2455 2440 2436 2425 2413 2401 2401 2400 2397 2394 2394 2399 2406 2443 2455 2465 2478 2491 2506 2538 2549 2563 2560 2568 2578 2580 2599 2616 2594 2575 2578 2586 2586 2580 2577 2567 2569 2575 2598 2617 2623 2620 2643 2609 2591 2591 2591 2591 2591 2591 2591 2594 2604 2622 2632 2645 2667 2688 2693 2677 2674 2684 2695 2707 2706 2690 2678 2633 2603 2573 2540 2535 2535 2535 2535 2553 2595 2597 2602 2633 2655 2677 2684 2692 2698 2700 2708 2714 2713 2710 2694 2686 2720 2724 2770 2794 2769 2688 2672 2668 2669 2681 2708 2740 2804 2825 2846 2835 2815 2816 2831 2812 2806 2805 2788 2808 2834 2853 2830 2792 2785 2817 2849 2846 2814 2795 2781 2787 2818 2843 2838 2824 2809 2797 2782 2761 2748 2731 2720 2720 2716 2716 2732 2774 2810 2833 2759 2704 2662 2627 2584 2583 2593 2615 2643 2671 2706 2732 2782 2830 2857 2882 2905 2927 2946 2962 2975 2965 2954 2947 2942 2942 2952 2951 2958 2967 2950 2916 2903 2896 2892 2905 2936 2968 3040 3051 3048 3049 3046 3050 3051 3046 3038 3020 3000 2989 2973 2964 2948 2914 2888 2855 2823 2826 2837 2826 2832 2833 2836 2843 2850 2858 2869 2872 2901 2917 2950 2975 2962 2952 2927 2912 2912 2953 2978 3000 2991 2976 2973 2977 2991 3001 2997 2986 2991 3013 3010 2997 2984 2985 2970 2961 2968 2984 3007 3031 3076 3119 3158 3186 3213 3244 3234 3194 3122 3078 3014 2978 2937 2917 2896 2874 2851 2819 2804 2778 2762 2736 2697 2659 2655 2658 2656 2737 2754 2767 2741 2696 2695 2716 2744 2762 2806 2781 2758 2734 2725 2746 2773 2830 2884 2949 3018 3059 3088 3126 3169 3189 3172 3149 3132 3122 3101 3052 2995 2943 2894 2858 2836 2835 2833 2852 2867 2879 2878 2891 2907 2913 2945 2943 2918 2865 2796 2760 2726 2692 2672 2655 2630 2592 2570 2567 2564 2578 2597 2605 2605 2601 2618 2583 2584 2574 2605 2631 2675 2687 2666 2681 2705 2758 2868 3000 3090 3098 2979 2954 3001 2981 2931 2928 2972 3048 3109 3178 3188 3132 3081 3033 3041 3078 3112 3159 3216 3250 3316 3353 3346 3335 3365 3404 3429 3423 3443 3465 3479 3499 3512 3504 3495 3464 3441 3418 3396 3387 3373 3355 3340 3350 3340 3288 3217 3213 3206 3167 3138 3125 3105 3093 3076 3061 3039 3030 3029 3026 3023 3020 3010 3006 3004 3029 3056 3090 3097 3091 3078 3070 3049 3029 3019 3016 3010 3026 3047 3066 3081 3077 3059 3054 3060 3033 3015 3003 3031 3061 3057 3030 2991 2956 2929 2898 2879 2853 2800 2747 2719 2711 2697 2663 2619 2564 2524 2479 2435 2376 2320 2274 2257 2232 2197 2187 2180 2174 2169 2165 2162 2160 2158 2157 2157 2158 2162 2166 2170 2220 2274 2326 2336 2351 2372 2389 2401 2403 2394 2379 2348 2335 2333 2329 2308 2282 2269 2259 2248 2233 2216 2202 2189 2198 2220 2246 2272 2302 2321 2321 2317 2306 2305 2305 2305 2305 2305 2314 2335 2351 2360 2359 2350 2331 2304 2279 2241 2204 2169 2134 2115 2108 2108 2108 2108 2108 2111 2129 2138 2132 2114 2096 2094 2083 2070 2069 2096 2115 2125 2124 2109 2086 2063 2060 2065 2069 2073 2072 2093 2107 2107 2108 2109 2109 2112 2111 2109 2109 2112 2115 2121 2123 2122 2121 2112 2107 2108 2118 2123 2123 2129 2141 2149 2147
2535 2560 2576 2593 2596 2561 2508 2455 2426 2419 2418 2412 2411 2415 2413 2400 2395 2393 2399 2407 2423 2460 2469 2482 2495 2501 2511 2531 2540 2544 2550 2549 2557 2567 2578 2584 2580 2568 2567 2568 2567 2561 2560 2560 2567 2575 2585 2594 2595 2598 2596 2591 2591 2591 2591 2591 2591 2591 2591 2591 2598 2601 2617 2634 2645 2669 2673 2670 2669 2669 2670 2670 2670 2670 2670 2637 2583 2545 2535 2535 2535 2535 2539 2580 2591 2607 2632 2656 2677 2701 2709 2716 2723 2726 2737 2737 2728 2720 2675 2666 2675 2686 2756 2768 2730 2678 2667 2665 2669 2705 2729 2756 2778 2845 2865 2839 2829 2830 2781 2779 2792 2786 2758 2774 2788 2816 2784 2760 2764 2776 2830 2815 2796 2780 2778 2779 2797 2814 2839 2830 2812 2800 2787 2766 2747 2723 2710 2704 2699 2714 2746 2789 2814 2795 2759 2699 2650 2611 2583 2583 2587 2608 2636 2675 2717 2778 2826 2855 2890 2915 2940 2962 2990 2998 2991 2962 2955 2951 2955 2961 2972 2997 3022 2987 2965 2947 2938 2942 2952 2972 2992 3040 3067 3074 3067 3059 3056 3059 3056 3049 3040 3025 3002 2989 2973 2967 2952 2918 2875 2846 2816 2814 2820 2814 2819 2824 2826 2840 2850 2865 2888 2910 2945 2979 2995 3026 3027 2989 2976 2954 2921 2943 2955 2991 2998 2992 2980 2985 3013 3041 3029 3039 3041 3037 3027 3016 3017 3027 2991 2979 2979 2986 2996 3020 3079 3135 3172 3212 3252 3257 3187 3132 3090 3033 2984 2948 2929 2914 2885 2869 2844 2813 2795 2786 2768 2723 2692 2655 2663 2666 2685 2743 2756 2754 2717 2715 2716 2734 2747 2779 2792 2787 2764 2739 2731 2740 2762 2812 2862 2921 2959 3025 3070 3096 3122 3145 3144 3127 3116 3095 3072 3029 2954 2910 2885 2863 2840 2840 2843 2873 2898 2913 2912 2931 2936 2960 2999 2993 2961 2910 2850 2799 2767 2728 2694 2660 2635 2591 2570 2567 2570 2604 2640 2649 2661 2650 2647 2615 2614 2625 2670 2696 2726 2750 2744 2755 2750 2787 2885 2976 3097 3125 3014 2992 3046 3009 2975 2960 2971 3031 3088 3167 3215 3117 3069 3040 3078 3111 3153 3196 3252 3310 3392 3427 3401 3384 3388 3423 3443 3453 3468 3509 3500 3491 3478 3475 3477 3443 3416 3397 3381 3367 3349 3334 3316 3328 3322 3293 3236 3211 3177 3145 3112 3104 3099 3087 3072 3055 3048 3049 3045 3045 3041 3039 3032 3029 3012 3028 3061 3111 3145 3138 3116 3119 3097 3074 3057 3046 3034 3030 3041 3056 3061 3056 3033 3029 3033 3022 2980 2961 2977 3006 3009 3003 2970 2948 2931 2902 2879 2851 2821 2783 2753 2712 2705 2679 2636 2581 2522 2468 2417 2374 2317 2275 2260 2223 2187 2177 2173 2170 2167 2164 2161 2159 2158 2158 2157 2159 2163 2167 2185 2239 2292 2339 2338 2357 2372 2386 2399 2404 2397 2383 2357 2339 2341 2340 2317 2294 2286 2287 2269 2255 2233 2219 2207 2203 2206 2230 2254 2286 2321 2326 2319 2306 2305 2305 2305 2305 2305 2307 2329 2348 2365 2357 2347 2331 2304 2280 2246 2209 2176 2140 2122 2109 2108 2108 2108 2108 2108 2111 2120 2118 2105 2093 2085 2087 2095 2086 2099 2120 2132 2134 2125 2098 2080 2065 2067 2071 2074 2075 2080 2096 2110 2112 2113 2110 2114 2115 2114 2114 2116 2118 2121 2131 2129 2123 2124 2113 2110 2125 2130 2130 2132 2144 2150 2149
2502 2532 2558 2561 2549 2521 2459 2431 2407 2399 2399 2403 2410 2410 2406 2396 2393 2400 2416 2429 2460 2482 2497 2505 2514 2510 2510 2518 2522 2525 2531 2539 2548 2562 2579 2585 2570 2558 2558 2558 2560 2560 2560 2562 2570 2575 2581 2586 2590 2591 2591 2591 2591 2591 2591 2592 2591 2593 2591 2596 2599 2596 2596 2614 2632 2647 2660 2670 2677 2675 2669 2664 2677 2694 2658 2597 2558 2535 2535 2535 2535 2536 2547 2585 2585 2603 2629 2665 2696 2720 2723 2734 2728 2714 2716 2730 2719 2696 2668 2665 2665 2667 2679 2728 2707 2676 2665 2664 2670 2707 2729 2750 2777 2843 2874 2864 2828 2768 2743 2794 2760 2743 2742 2746 2776 2777 2753 2754 2754 2761 2780 2783 2779 2777 2779 2783 2794 2803 2852 2833 2807 2800 2805 2764 2737 2718 2699 2692 2693 2705 2722 2764 2751 2753 2742 2691 2636 2589 2583 2583 2594 2621 2659 2698 2732 2783 2826 2855 2882 2924 2977 3012 3001 2985 2962 2964 2962 2976 2977 2971 2986 3047 2997 2961 2969 2973 2996 3014 3030 3062 3057 3058 3085 3079 3069 3058 3062 3066 3062 3055 3045 3024 3002 2983 2974 2974 2938 2895 2858 2827 2809 2804 2806 2807 2812 2816 2823 2835 2857 2890 2915 2950 3010 3048 3090 3132 3099 3046 3031 2990 2941 2939 2949 2982 2997 3016 2996 3004 3041 3085 3070 3068 3065 3045 3036 3029 3041 3059 3028 3018 2996 2994 2995 3011 3065 3134 3211 3247 3261 3198 3146 3101 3043 3013 2990 2961 2930 2908 2876 2856 2831 2807 2806 2783 2750 2715 2678 2655 2662 2670 2690 2726 2768 2779 2734 2727 2742 2759 2783 2815 2815 2792 2776 2751 2746 2739 2755 2794 2841 2892 2937 2976 3026 3050 3072 3100 3106 3107 3088 3055 3023 3003 2941 2900 2881 2860 2844 2841 2863 2896 2933 2948 2953 2964 2972 3001 3020 3017 2989 2949 2889 2854 2806 2750 2702 2663 2629 2576 2569 2567 2592 2636 2676 2692 2708 2701 2686 2657 2654 2671 2710 2744 2788 2810 2821 2824 2812 2839 2892 2987 3120 3167 3053 3035 3115 3070 3012 2990 2991 3026 3085 3175 3202 3126 3072 3057 3095 3139 3188 3219 3287 3348 3406 3467 3454 3439 3430 3443 3467 3484 3502 3510 3459 3420 3408 3438 3442 3411 3386 3368 3357 3349 3326 3307 3290 3310 3312 3303 3247 3192 3151 3127 3104 3094 3086 3081 3068 3068 3070 3070 3068 3069 3065 3064 3060 3054 3032 3024 3047 3105 3161 3160 3132 3147 3138 3132 3113 3085 3060 3047 3048 3038 3030 3025 3015 3014 3018 3004 2960 2937 2933 2939 2946 2959 2947 2917 2901 2881 2857 2827 2811 2788 2747 2696 2671 2657 2622 2565 2500 2439 2391 2347 2301 2273 2252 2208 2170 2169 2167 2166 2164 2162 2160 2159 2158 2157 2158 2161 2165 2169 2207 2266 2310 2343 2344 2357 2371 2382 2391 2401 2400 2388 2369 2350 2345 2337 2321 2303 2301 2310 2292 2277 2249 2233 2224 2217 2209 2215 2238 2269 2298 2318 2320 2306 2305 2305 2305 2305 2305 2305 2326 2348 2361 2352 2345 2329 2305 2279 2242 2216 2195 2163 2133 2117 2108 2108 2108 2108 2108 2108 2108 2109 2102 2094 2091 2098 2102 2101 2103 2117 2127 2127 2123 2097 2080 2068 2068 2072 2077 2080 2082 2084 2098 2113 2117 2118 2118 2119 2120 2119 2119 2121 2125 2132 2134 2131 2143 2118 2116 2134 2138 2139 2134 2147 2152 2151
2470 2503 2517 2511 2483 2437 2414 2407 2397 2396 2398 2398 2400 2413 2402 2393 2399 2415 2442 2469 2501 2521 2522 2526 2522 2523 2507 2509 2508 2514 2525 2532 2538 2571 2584 2573 2558 2559 2562 2562 2564 2571 2576 2581 2586 2589 2592 2594 2598 2602 2599 2602 2603 2603 2605 2605 2598 2599 2594 2599 2605 2596 2595 2596 2606 2629 2646 2663 2683 2671 2660 2658 2655 2652 2618 2583 2558 2535 2535 2535 2535 2535 2537 2569 2586 2603 2635 2680 2694 2724 2743 2742 2718 2697 2703 2722 2707 2683 2667 2661 2661 2666 2688 2707 2697 2673 2658 2659 2669 2683 2681 2771 2826 2857 2876 2855 2792 2753 2741 2741 2741 2740 2739 2741 2752 2753 2753 2754 2755 2758 2765 2772 2777 2778 2783 2787 2791 2803 2862 2836 2815 2799 2795 2752 2730 2703 2689 2684 2683 2683 2693 2711 2723 2721 2708 2665 2615 2583 2583 2587 2608 2631 2673 2712 2760 2819 2840 2877 2912 2971 3011 2997 2986 2962 2952 2961 2984 2996 2975 2950 2946 2968 2940 2953 2964 3000 3028 3057 3070 3096 3096 3093 3091 3086 3072 3074 3073 3076 3073 3065 3052 3022 3005 2994 2979 2961 2908 2869 2839 2811 2803 2801 2799 2799 2806 2811 2822 2842 2878 2907 2942 2995 3049 3109 3156 3188 3179 3115 3065 3025 2966 2951 2954 2983 3028 3033 3025 3033 3067 3096 3088 3086 3092 3053 3036 3034 3054 3085 3066 3064 3027 3010 3001 3015 3055 3114 3218 3245 3210 3148 3112 3070 3040 3023 3003 2976 2942 2906 2872 2847 2818 2804 2804 2765 2748 2706 2667 2655 2663 2676 2692 2753 2777 2783 2748 2741 2757 2766 2813 2838 2824 2801 2787 2764 2761 2749 2755 2775 2824 2865 2913 2939 2963 2987 3019 3044 3052 3063 3058 3023 3007 3000 2943 2914 2887 2869 2845 2854 2881 2922 2961 2984 3000 2993 3009 3012 3047 3033 3013 2977 2916 2877 2817 2750 2703 2647 2607 2574 2574 2581 2619 2678 2721 2753 2762 2732 2719 2699 2697 2710 2747 2805 2871 2876 2883 2863 2850 2869 2920 2973 3051 3142 3106 3116 3178 3134 3067 3046 3017 3030 3081 3164 3210 3122 3080 3066 3099 3137 3186 3239 3299 3355 3408 3465 3494 3489 3475 3478 3488 3513 3511 3496 3426 3374 3368 3403 3383 3362 3348 3338 3325 3314 3303 3278 3260 3289 3293 3279 3231 3174 3134 3105 3098 3089 3084 3081 3081 3081 3085 3085 3084 3081 3081 3083 3085 3080 3046 3034 3046 3091 3133 3123 3132 3158 3154 3146 3124 3094 3071 3062 3057 3026 2987 2991 2997 2991 3004 2999 2961 2923 2875 2882 2888 2903 2911 2886 2865 2847 2818 2790 2774 2767 2728 2674 2632 2628 2612 2554 2486 2429 2377 2330 2290 2269 2230 2186 2166 2163 2161 2160 2159 2159 2160 2159 2157 2159 2161 2163 2167 2175 2225 2277 2320 2350 2355 2359 2367 2375 2384 2396 2405 2401 2380 2359 2350 2342 2327 2317 2314 2335 2313 2297 2269 2246 2233 2225 2219 2214 2224 2250 2279 2303 2317 2307 2305 2305 2305 2305 2305 2306 2329 2352 2368 2359 2347 2333 2308 2288 2258 2220 2191 2167 2141 2124 2115 2108 2108 2108 2108 2108 2108 2108 2103 2094 2098 2104 2109 2111 2117 2120 2123 2120 2110 2094 2074 2068 2071 2075 2081 2085 2095 2088 2092 2112 2123 2124 2124 2124 2124 2123 2122 2124 2128 2133 2137 2138 2148 2123 2125 2146 2150 2149 2147 2150 2156 2153
2435 2447 2461 2471 2441 2426 2419 2413 2396 2413 2417 2409 2402 2392 2393 2397 2409 2439 2480 2512 2538 2551 2544 2535 2523 2508 2506 2506 2512 2524 2538 2555 2565 2574 2574 2563 2558 2562 2572 2581 2586 2586 2597 2605 2612 2612 2611 2612 2614 2622 2620 2619 2616 2616 2619 2608 2605 2602 2607 2603 2599 2595 2597 2601 2607 2627 2639 2644 2645 2645 2644 2644 2639 2625 2616 2596 2564 2542 2538 2535 2536 2535 2555 2570 2597 2614 2638 2670 2691 2725 2753 2725 2698 2696 2696 2718 2700 2680 2662 2656 2649 2663 2702 2722 2688 2665 2657 2659 2659 2667 2686 2726 2790 2837 2857 2834 2792 2743 2740 2738 2738 2738 2738 2745 2763 2758 2756 2758 2759 2762 2765 2774 2779 2785 2790 2798 2814 2850 2867 2840 2817 2804 2789 2754 2721 2691 2677 2669 2666 2667 2668 2683 2696 2697 2685 2636 2591 2583 2583 2597 2623 2660 2696 2739 2788 2836 2869 2907 2943 2978 2987 2979 2970 2940 2939 2944 2946 2944 2931 2921 2921 2923 2932 2943 2964 2984 3020 3052 3077 3097 3105 3109 3105 3099 3086 3089 3087 3086 3082 3074 3055 3037 3010 2990 2962 2915 2875 2840 2814 2797 2795 2793 2783 2789 2797 2809 2820 2848 2889 2928 2976 3026 3077 3132 3179 3199 3196 3148 3096 3060 3025 2986 2977 2999 3053 3055 3053 3074 3095 3099 3095 3098 3097 3061 3046 3034 3047 3077 3091 3103 3055 3047 3040 3028 3051 3111 3186 3207 3186 3135 3089 3061 3023 3016 2997 2973 2947 2901 2876 2836 2809 2800 2775 2757 2729 2709 2665 2659 2662 2695 2721 2768 2764 2785 2753 2766 2772 2824 2847 2853 2840 2814 2788 2775 2772 2757 2756 2768 2804 2848 2881 2905 2923 2946 2965 2983 3003 3020 3025 3010 3008 2999 2959 2917 2899 2868 2857 2864 2899 2946 2992 3025 3029 3027 3030 3032 3059 3040 3018 2974 2916 2863 2805 2746 2699 2628 2594 2574 2575 2595 2637 2703 2757 2788 2773 2773 2767 2748 2743 2754 2777 2833 2927 2911 2918 2912 2890 2888 2914 2968 3059 3125 3207 3220 3201 3169 3095 3052 3034 3038 3093 3163 3202 3131 3089 3074 3094 3123 3164 3221 3286 3337 3378 3429 3489 3523 3508 3505 3514 3524 3509 3488 3383 3338 3335 3339 3328 3303 3286 3287 3284 3277 3255 3239 3233 3249 3262 3252 3210 3163 3128 3105 3096 3097 3095 3099 3100 3098 3101 3097 3095 3094 3096 3103 3109 3102 3071 3050 3046 3070 3099 3107 3129 3145 3137 3142 3123 3098 3091 3081 3065 3013 2961 2941 2971 2946 2965 2974 2957 2907 2866 2818 2833 2847 2861 2850 2826 2810 2778 2741 2724 2730 2696 2648 2608 2593 2590 2544 2481 2419 2362 2319 2288 2251 2207 2174 2161 2158 2158 2158 2158 2158 2159 2158 2157 2160 2162 2166 2169 2190 2239 2282 2331 2353 2356 2358 2361 2369 2381 2399 2416 2405 2387 2368 2356 2348 2340 2333 2333 2356 2336 2326 2290 2262 2244 2232 2225 2219 2216 2235 2262 2288 2306 2308 2306 2305 2305 2305 2305 2312 2335 2360 2377 2364 2353 2341 2318 2296 2265 2236 2217 2190 2162 2139 2123 2113 2108 2108 2108 2108 2108 2110 2103 2090 2093 2102 2103 2110 2120 2122 2111 2104 2097 2088 2070 2070 2072 2081 2087 2092 2106 2098 2092 2103 2133 2132 2131 2129 2127 2126 2127 2129 2133 2135 2143 2145 2148 2128 2134 2159 2167 2165 2158 2156 2160 2154
2438 2449 2449 2450 2435 2424 2416 2398 2394 2439 2429 2420 2410 2392 2409 2415 2429 2451 2493 2508 2551 2561 2538 2520 2520 2511 2502 2501 2510 2541 2556 2568 2581 2581 2569 2556 2560 2570 2586 2601 2606 2603 2611 2618 2631 2633 2637 2639 2648 2653 2644 2632 2634 2636 2635 2623 2620 2607 2609 2609 2595 2590 2595 2599 2606 2626 2654 2654 2661 2667 2670 2669 2658 2649 2633 2605 2553 2539 2535 2535 2535 2551 2583 2614 2614 2623 2647 2667 2691 2692 2685 2698 2696 2696 2696 2707 2697 2677 2654 2647 2638 2639 2662 2710 2682 2666 2666 2656 2657 2673 2700 2745 2784 2821 2801 2782 2756 2741 2738 2738 2738 2738 2741 2759 2767 2761 2760 2762 2763 2764 2771 2786 2794 2795 2800 2816 2837 2873 2878 2839 2824 2820 2796 2754 2720 2671 2664 2659 2655 2656 2657 2664 2675 2674 2661 2603 2583 2583 2586 2607 2647 2684 2721 2765 2827 2847 2879 2907 2946 2961 2974 2968 2933 2907 2902 2909 2912 2913 2910 2910 2913 2925 2930 2948 2963 2983 3017 3051 3073 3093 3117 3124 3120 3113 3114 3112 3104 3096 3087 3074 3059 3048 3025 3018 2971 2901 2848 2811 2791 2781 2777 2777 2771 2781 2791 2804 2828 2863 2904 2951 2999 3043 3089 3131 3162 3180 3208 3209 3156 3082 3033 3016 2999 3003 3038 3077 3088 3113 3124 3108 3110 3092 3076 3059 3060 3039 3043 3075 3108 3114 3109 3087 3070 3053 3070 3121 3160 3137 3119 3090 3048 3030 3009 3002 2975 2957 2926 2910 2870 2829 2809 2787 2768 2756 2722 2682 2670 2666 2671 2727 2771 2766 2765 2773 2762 2762 2784 2817 2848 2849 2846 2832 2800 2792 2788 2765 2766 2775 2797 2833 2859 2879 2898 2920 2935 2949 2957 2977 2998 3015 3025 3004 2971 2935 2897 2878 2877 2901 2924 2969 3030 3076 3074 3057 3064 3056 3059 3060 3023 2970 2906 2855 2792 2744 2685 2636 2599 2582 2575 2599 2652 2718 2790 2846 2789 2825 2821 2795 2794 2800 2832 2876 2941 2960 2981 2982 2940 2925 2933 2962 3038 3099 3173 3264 3222 3197 3099 3042 3056 3070 3091 3164 3181 3124 3096 3087 3096 3127 3157 3198 3247 3292 3346 3388 3445 3503 3534 3533 3532 3524 3505 3478 3369 3324 3309 3301 3286 3278 3271 3266 3261 3252 3228 3215 3218 3225 3229 3225 3203 3162 3133 3112 3114 3116 3117 3119 3121 3119 3116 3109 3109 3112 3121 3129 3134 3122 3096 3071 3064 3069 3087 3099 3108 3125 3123 3125 3124 3112 3100 3083 3044 2983 2940 2905 2938 2922 2915 2933 2938 2892 2832 2787 2774 2791 2806 2815 2786 2762 2751 2705 2662 2681 2665 2619 2587 2560 2555 2510 2471 2415 2361 2305 2261 2223 2186 2168 2161 2158 2158 2158 2158 2158 2158 2158 2157 2159 2165 2168 2181 2217 2255 2287 2334 2342 2349 2351 2354 2361 2375 2402 2413 2405 2397 2380 2367 2354 2350 2349 2349 2375 2354 2341 2306 2281 2258 2242 2231 2225 2221 2226 2246 2271 2292 2304 2316 2316 2316 2314 2313 2323 2348 2369 2380 2372 2359 2346 2332 2309 2288 2265 2239 2214 2189 2161 2141 2125 2111 2108 2108 2108 2110 2111 2101 2083 2082 2087 2089 2094 2105 2110 2096 2086 2078 2071 2072 2073 2076 2089 2100 2102 2107 2119 2101 2096 2134 2146 2137 2133 2131 2130 2130 2132 2136 2141 2147 2151 2151 2136 2137 2161 2170 2173 2169 2166 2163 2154
2441 2447 2440 2442 2432 2416 2402 2390 2384 2399 2421 2417 2392 2401 2420 2443 2446 2456 2474 2498 2532 2531 2529 2516 2510 2504 2496 2490 2505 2539 2537 2572 2587 2572 2556 2548 2561 2584 2596 2623 2608 2609 2620 2624 2621 2631 2660 2645 2642 2668 2645 2649 2652 2655 2645 2638 2623 2614 2597 2599 2592 2588 2596 2596 2606 2624 2642 2659 2670 2684 2684 2680 2682 2652 2604 2574 2538 2536 2534 2546 2549 2535 2570 2603 2617 2640 2673 2682 2682 2680 2688 2696 2699 2702 2714 2720 2714 2672 2642 2646 2629 2629 2633 2671 2678 2663 2686 2654 2670 2703 2741 2764 2788 2793 2773 2760 2750 2740 2738 2738 2738 2738 2757 2786 2767 2764 2764 2766 2775 2776 2789 2803 2808 2807 2813 2829 2855 2897 2868 2844 2831 2817 2777 2729 2696 2665 2652 2645 2644 2649 2656 2657 2672 2644 2617 2583 2583 2583 2600 2628 2668 2714 2763 2813 2855 2877 2890 2911 2961 2969 2973 2933 2887 2879 2875 2878 2888 2890 2900 2904 2914 2921 2928 2945 2962 2990 3022 3062 3096 3121 3143 3145 3138 3122 3124 3123 3112 3100 3087 3074 3064 3051 3034 3049 2960 2882 2827 2789 2769 2766 2763 2770 2765 2768 2785 2809 2840 2878 2923 2964 3010 3055 3091 3125 3144 3170 3192 3234 3228 3115 3055 3030 3023 3009 3032 3114 3140 3146 3123 3115 3106 3090 3077 3066 3064 3059 3069 3115 3134 3120 3127 3104 3091 3091 3114 3151 3129 3108 3081 3048 3020 3008 3000 2974 2961 2940 2922 2900 2871 2831 2828 2790 2756 2748 2716 2681 2673 2679 2697 2769 2790 2776 2767 2779 2772 2766 2766 2779 2808 2828 2845 2849 2816 2802 2800 2787 2797 2800 2800 2813 2837 2857 2868 2884 2903 2921 2933 2951 2969 3008 3021 3023 3001 2954 2906 2901 2907 2933 2947 2994 3078 3141 3126 3097 3095 3073 3071 3051 3009 2948 2890 2837 2797 2747 2695 2647 2620 2594 2582 2616 2665 2722 2809 2886 2818 2853 2866 2845 2842 2855 2887 2917 2948 2980 3040 3045 2977 2951 2979 3007 3025 3090 3189 3275 3256 3218 3086 3049 3060 3085 3116 3182 3192 3147 3120 3107 3098 3119 3146 3171 3209 3256 3300 3352 3398 3455 3515 3564 3547 3519 3498 3449 3377 3321 3281 3265 3255 3255 3267 3258 3247 3228 3215 3201 3201 3210 3215 3212 3193 3162 3145 3134 3138 3136 3138 3138 3135 3130 3126 3121 3131 3140 3152 3161 3161 3142 3122 3106 3092 3078 3082 3096 3106 3104 3106 3106 3113 3110 3084 3040 3003 2959 2909 2877 2895 2891 2859 2878 2881 2877 2831 2764 2710 2732 2755 2773 2751 2722 2708 2663 2630 2631 2637 2597 2556 2529 2512 2474 2435 2387 2337 2287 2237 2198 2175 2164 2159 2158 2158 2158 2158 2158 2158 2158 2157 2158 2169 2173 2203 2243 2261 2304 2343 2328 2326 2328 2333 2343 2358 2374 2390 2402 2408 2399 2377 2366 2362 2362 2365 2391 2366 2344 2323 2298 2274 2254 2240 2231 2228 2226 2234 2256 2278 2291 2314 2331 2332 2331 2328 2338 2359 2374 2382 2377 2371 2357 2345 2329 2309 2289 2265 2238 2217 2187 2163 2137 2122 2114 2111 2112 2113 2110 2098 2082 2078 2079 2077 2079 2083 2083 2077 2071 2071 2072 2075 2077 2080 2085 2103 2120 2127 2136 2117 2102 2112 2148 2144 2138 2134 2132 2132 2134 2140 2144 2153 2157 2154 2146 2136 2158 2168 2176 2177 2174 2163 2155
2443 2443 2441 2436 2425 2408 2386 2376 2361 2360 2363 2368 2359 2404 2430 2441 2445 2459 2468 2473 2498 2511 2503 2496 2496 2491 2485 2475 2492 2515 2524 2550 2546 2530 2524 2529 2546 2606 2625 2629 2622 2618 2620 2609 2605 2605 2603 2610 2639 2647 2646 2651 2661 2648 2657 2633 2619 2605 2596 2593 2588 2594 2604 2613 2622 2641 2654 2657 2668 2667 2671 2662 2659 2634 2577 2537 2533 2533 2535 2535 2535 2535 2566 2595 2641 2662 2668 2678 2677 2683 2702 2694 2707 2711 2718 2723 2684 2642 2623 2622 2620 2620 2631 2673 2681 2660 2654 2650 2686 2765 2785 2808 2817 2759 2754 2753 2745 2740 2738 2738 2740 2760 2770 2788 2778 2776 2765 2768 2784 2793 2800 2819 2821 2818 2823 2838 2901 2901 2881 2832 2798 2768 2723 2693 2669 2655 2644 2644 2644 2646 2650 2654 2647 2615 2584 2583 2583 2587 2610 2657 2703 2748 2820 2848 2874 2887 2889 2904 2935 2939 2909 2883 2865 2850 2857 2861 2869 2883 2894 2900 2915 2924 2938 2952 2979 3021 3070 3087 3116 3158 3163 3152 3138 3126 3120 3113 3106 3096 3086 3079 3072 3054 3040 2998 2920 2861 2813 2776 2755 2751 2751 2757 2760 2772 2789 2813 2854 2891 2933 2976 3025 3069 3095 3118 3138 3157 3187 3214 3206 3120 3086 3050 3032 3021 3048 3093 3173 3168 3140 3117 3109 3098 3087 3076 3085 3101 3120 3144 3142 3145 3151 3134 3124 3130 3161 3172 3115 3080 3048 3029 3010 3000 2974 2954 2938 2928 2915 2896 2867 2838 2830 2786 2752 2743 2703 2696 2695 2714 2722 2781 2798 2792 2785 2780 2779 2789 2766 2766 2776 2802 2835 2849 2841 2821 2818 2812 2815 2831 2823 2814 2825 2840 2851 2862 2884 2903 2925 2937 2948 2961 3003 3027 3015 2981 2942 2935 2946 2969 2983 3033 3100 3184 3187 3139 3120 3097 3069 3007 2960 2933 2886 2833 2791 2748 2695 2649 2620 2602 2592 2621 2674 2734 2814 2853 2884 2875 2887 2882 2901 2905 2940 2958 2965 2999 3081 3074 3038 2993 2987 3017 3038 3106 3218 3292 3298 3191 3088 3071 3086 3094 3132 3192 3200 3176 3144 3135 3128 3131 3160 3192 3201 3225 3268 3310 3364 3411 3472 3541 3551 3521 3498 3472 3411 3320 3275 3230 3227 3220 3226 3236 3231 3219 3201 3191 3191 3194 3206 3205 3193 3176 3163 3157 3157 3157 3157 3150 3143 3138 3137 3138 3151 3166 3183 3198 3196 3176 3149 3138 3118 3098 3090 3097 3091 3076 3088 3093 3095 3092 3069 3009 2950 2913 2884 2839 2850 2869 2814 2814 2820 2821 2806 2764 2700 2666 2705 2729 2727 2693 2661 2638 2592 2582 2600 2557 2521 2492 2450 2441 2398 2349 2300 2255 2215 2182 2166 2160 2158 2158 2158 2158 2158 2158 2158 2158 2157 2159 2176 2194 2234 2261 2279 2328 2340 2325 2314 2312 2312 2320 2330 2345 2360 2374 2392 2400 2388 2380 2376 2373 2390 2386 2368 2352 2339 2316 2291 2268 2252 2241 2235 2233 2235 2244 2263 2277 2302 2328 2349 2352 2348 2352 2368 2378 2385 2388 2390 2374 2359 2345 2327 2311 2287 2265 2239 2215 2183 2159 2135 2122 2119 2117 2112 2107 2093 2078 2078 2078 2077 2076 2076 2075 2073 2073 2073 2075 2077 2080 2083 2090 2109 2131 2144 2152 2149 2114 2109 2122 2145 2143 2139 2137 2138 2140 2144 2151 2160 2168 2157 2149 2140 2160 2170 2179 2184 2177 2165 2159
2438 2437 2443 2450 2414 2385 2362 2351 2333 2337 2340 2334 2362 2393 2418 2421 2423 2430 2448 2436 2447 2469 2472 2475 2485 2470 2461 2465 2480 2487 2504 2503 2500 2495 2495 2517 2547 2584 2618 2633 2628 2606 2607 2594 2587 2576 2570 2589 2593 2595 2612 2619 2610 2608 2618 2615 2602 2592 2585 2576 2589 2608 2615 2627 2636 2638 2634 2642 2654 2661 2649 2633 2625 2592 2558 2533 2532 2535 2533 2535 2535 2551 2574 2608 2661 2656 2670 2654 2658 2663 2658 2659 2680 2692 2696 2687 2664 2638 2624 2611 2619 2625 2641 2656 2666 2648 2643 2660 2681 2767 2787 2782 2774 2753 2750 2747 2741 2738 2738 2739 2742 2799 2803 2791 2784 2769 2765 2777 2787 2800 2815 2832 2832 2830 2837 2876 2920 2910 2850 2785 2737 2704 2679 2669 2656 2647 2644 2644 2644 2645 2659 2657 2623 2585 2583 2583 2583 2604 2648 2694 2729 2790 2831 2879 2874 2866 2876 2891 2889 2876 2861 2839 2837 2836 2840 2855 2868 2876 2892 2906 2917 2925 2943 2966 3007 3077 3110 3112 3130 3166 3161 3145 3130 3117 3112 3104 3100 3098 3089 3079 3071 3057 3025 2946 2892 2842 2797 2764 2749 2742 2742 2749 2758 2772 2791 2822 2858 2898 2944 2991 3032 3068 3092 3115 3133 3156 3186 3206 3217 3154 3111 3077 3057 3046 3087 3104 3167 3190 3152 3123 3105 3099 3088 3092 3112 3160 3189 3172 3167 3182 3186 3168 3159 3159 3166 3154 3112 3068 3041 3028 3011 2981 2952 2930 2923 2921 2913 2896 2863 2837 2802 2768 2744 2720 2731 2718 2728 2750 2749 2804 2824 2827 2809 2806 2801 2791 2773 2766 2766 2780 2818 2841 2849 2841 2827 2827 2833 2853 2849 2829 2839 2852 2854 2862 2875 2905 2928 2947 2952 2968 2996 3032 3032 3009 2999 2991 2995 3013 3044 3084 3123 3194 3209 3167 3153 3105 3068 3014 2962 2922 2883 2840 2802 2741 2692 2653 2628 2612 2604 2630 2669 2722 2793 2851 2907 2904 2905 2931 2946 2964 2980 2982 3003 3017 3067 3120 3113 3057 3023 3013 3046 3116 3242 3298 3279 3175 3099 3092 3111 3116 3143 3187 3200 3189 3169 3162 3154 3149 3177 3220 3241 3230 3249 3285 3331 3384 3449 3522 3541 3520 3501 3484 3404 3335 3282 3231 3219 3216 3214 3218 3218 3206 3197 3187 3187 3200 3210 3205 3192 3185 3178 3177 3172 3171 3170 3161 3153 3149 3148 3159 3176 3200 3219 3230 3228 3213 3184 3157 3129 3108 3101 3097 3071 3061 3066 3079 3077 3066 3046 2999 2951 2896 2839 2803 2806 2824 2793 2748 2760 2763 2759 2734 2696 2635 2655 2690 2698 2669 2629 2597 2564 2536 2550 2522 2477 2457 2413 2382 2351 2308 2267 2221 2186 2162 2158 2158 2158 2158 2158 2158 2158 2158 2158 2157 2160 2170 2192 2226 2268 2279 2289 2333 2337 2322 2314 2309 2304 2303 2311 2318 2330 2341 2353 2364 2366 2363 2364 2367 2377 2383 2375 2364 2362 2333 2312 2286 2269 2254 2243 2242 2248 2252 2254 2264 2290 2316 2338 2357 2363 2366 2372 2382 2390 2394 2392 2390 2371 2361 2348 2334 2311 2285 2261 2236 2212 2183 2158 2139 2126 2118 2110 2097 2085 2078 2079 2078 2077 2076 2076 2075 2075 2075 2075 2077 2079 2083 2084 2099 2121 2143 2153 2161 2165 2146 2111 2116 2139 2151 2148 2143 2145 2144 2150 2159 2168 2173 2163 2154 2145 2160 2178 2184 2187 2178 2169 2167
2426 2420 2431 2422 2394 2358 2334 2317 2305 2310 2313 2333 2365 2384 2398 2397 2401 2411 2412 2408 2416 2444 2448 2452 2451 2449 2448 2453 2460 2462 2473 2476 2477 2476 2488 2506 2531 2570 2617 2623 2591 2582 2582 2564 2557 2538 2543 2550 2559 2568 2593 2591 2588 2586 2604 2593 2589 2584 2564 2572 2589 2596 2621 2628 2620 2617 2617 2620 2627 2631 2630 2624 2589 2574 2544 2536 2532 2532 2534 2535 2549 2566 2586 2612 2633 2633 2644 2644 2640 2626 2625 2646 2664 2669 2679 2670 2654 2653 2635 2618 2607 2614 2648 2683 2654 2643 2650 2673 2675 2699 2715 2738 2754 2751 2753 2765 2740 2738 2738 2738 2754 2786 2803 2790 2787 2771 2769 2776 2791 2805 2837 2847 2839 2843 2885 2912 2893 2858 2809 2752 2696 2675 2667 2655 2645 2644 2646 2647 2645 2655 2663 2638 2598 2583 2583 2583 2598 2636 2680 2717 2757 2797 2818 2853 2853 2845 2847 2858 2848 2835 2818 2831 2825 2831 2844 2853 2856 2866 2884 2904 2918 2934 2952 2992 3068 3104 3110 3114 3139 3158 3147 3131 3120 3109 3098 3095 3092 3087 3084 3072 3064 3049 2989 2918 2869 2825 2782 2755 2743 2737 2738 2746 2756 2769 2799 2828 2866 2908 2950 2989 3035 3068 3098 3118 3129 3158 3180 3192 3221 3194 3149 3130 3112 3115 3098 3123 3162 3192 3146 3118 3109 3103 3095 3105 3135 3182 3192 3178 3184 3202 3227 3221 3198 3197 3158 3130 3094 3062 3042 3018 2990 2958 2925 2917 2919 2924 2903 2889 2860 2811 2774 2757 2745 2744 2738 2732 2751 2762 2768 2807 2833 2845 2841 2835 2835 2803 2790 2767 2766 2770 2791 2831 2850 2844 2840 2840 2844 2861 2868 2854 2858 2863 2867 2875 2886 2912 2946 2971 2986 3007 3027 3059 3065 3053 3061 3045 3032 3063 3101 3123 3153 3198 3213 3208 3189 3129 3080 3018 2970 2918 2880 2837 2815 2726 2692 2659 2634 2621 2616 2633 2668 2710 2774 2836 2885 2906 2914 2947 2986 3021 3051 3045 3013 3027 3063 3144 3192 3091 3048 3031 3055 3118 3204 3288 3281 3193 3127 3116 3135 3137 3152 3198 3205 3202 3199 3190 3183 3184 3187 3237 3288 3268 3261 3287 3336 3388 3451 3504 3527 3512 3501 3471 3399 3346 3288 3239 3218 3217 3218 3214 3207 3196 3191 3184 3172 3196 3208 3204 3196 3196 3195 3179 3169 3157 3169 3173 3164 3163 3167 3185 3205 3221 3252 3271 3265 3240 3183 3145 3117 3104 3098 3081 3048 3032 3031 3054 3064 3036 3026 2988 2928 2864 2820 2773 2756 2768 2773 2718 2688 2699 2702 2685 2651 2610 2608 2652 2663 2641 2602 2575 2522 2486 2498 2489 2448 2422 2387 2331 2300 2266 2222 2188 2160 2158 2158 2158 2158 2158 2158 2158 2158 2158 2159 2162 2167 2188 2222 2265 2302 2309 2328 2347 2334 2318 2313 2309 2306 2303 2302 2304 2306 2311 2321 2331 2338 2335 2338 2346 2361 2374 2380 2377 2371 2352 2332 2305 2283 2268 2256 2253 2261 2266 2268 2266 2276 2303 2327 2348 2368 2381 2387 2389 2397 2389 2389 2389 2388 2376 2372 2359 2335 2306 2278 2254 2232 2211 2185 2161 2132 2117 2104 2090 2078 2080 2079 2079 2077 2076 2076 2076 2076 2077 2078 2080 2080 2086 2092 2096 2111 2142 2152 2161 2170 2174 2143 2117 2129 2160 2163 2152 2152 2156 2161 2161 2174 2183 2169 2160 2151 2160 2186 2195 2192 2184 2177 2176
2398 2399 2397 2381 2370 2332 2311 2300 2295 2297 2309 2333 2350 2364 2375 2379 2381 2384 2385 2389 2401 2418 2422 2434 2440 2440 2438 2441 2445 2450 2454 2455 2457 2458 2479 2516 2528 2561 2584 2582 2552 2554 2561 2527 2502 2510 2523 2523 2532 2542 2558 2565 2567 2571 2574 2580 2574 2561 2547 2573 2580 2586 2600 2602 2603 2603 2602 2601 2607 2634 2610 2595 2589 2579 2549 2531 2532 2531 2533 2535 2566 2607 2633 2626 2633 2638 2652 2675 2639 2617 2609 2636 2649 2677 2694 2678 2660 2642 2647 2606 2605 2613 2659 2671 2643 2618 2622 2638 2649 2663 2673 2720 2755 2748 2750 2743 2738 2738 2738 2738 2744 2782 2813 2831 2800 2778 2785 2806 2825 2854 2877 2854 2876 2902 2899 2884 2864 2841 2767 2713 2678 2663 2650 2644 2644 2644 2657 2658 2660 2677 2665 2629 2595 2583 2583 2584 2634 2660 2692 2734 2758 2780 2806 2825 2828 2818 2817 2819 2816 2813 2817 2817 2827 2832 2840 2847 2851 2861 2876 2898 2914 2940 2968 3059 3080 3082 3087 3100 3121 3127 3118 3121 3114 3103 3090 3084 3079 3076 3064 3062 3060 3020 2962 2901 2849 2810 2776 2752 2739 2732 2735 2743 2754 2774 2807 2838 2876 2913 2949 2997 3039 3075 3103 3123 3132 3154 3172 3190 3219 3248 3267 3180 3155 3161 3141 3140 3164 3214 3178 3129 3119 3112 3105 3125 3154 3183 3186 3180 3183 3216 3257 3277 3242 3197 3155 3116 3081 3059 3037 2999 2966 2932 2915 2909 2934 2911 2869 2844 2808 2787 2765 2755 2756 2753 2754 2757 2766 2778 2776 2834 2855 2852 2851 2865 2844 2811 2788 2774 2767 2767 2784 2819 2844 2854 2862 2856 2852 2862 2880 2879 2878 2881 2886 2901 2921 2948 2973 3002 3024 3048 3059 3085 3104 3122 3141 3113 3075 3098 3136 3151 3160 3209 3225 3233 3222 3164 3116 3031 2977 2928 2886 2834 2794 2734 2697 2665 2646 2636 2625 2628 2654 2695 2743 2812 2855 2908 2945 2961 3006 3047 3096 3110 3043 3034 3087 3149 3180 3096 3074 3054 3080 3126 3198 3276 3279 3203 3160 3146 3156 3160 3169 3230 3221 3218 3220 3212 3193 3188 3190 3231 3304 3293 3289 3294 3339 3393 3451 3484 3501 3498 3491 3476 3424 3385 3334 3276 3249 3245 3247 3244 3225 3200 3186 3182 3144 3170 3198 3206 3214 3204 3176 3141 3127 3113 3114 3127 3148 3156 3171 3177 3214 3254 3265 3269 3255 3209 3165 3133 3104 3093 3086 3064 3030 3001 2993 3018 3033 3017 3001 2968 2914 2864 2812 2760 2703 2708 2728 2718 2657 2634 2642 2629 2599 2567 2579 2615 2623 2621 2573 2533 2517 2453 2433 2439 2424 2387 2362 2320 2259 2220 2189 2159 2158 2158 2158 2158 2158 2158 2158 2158 2158 2158 2160 2166 2179 2215 2255 2298 2340 2343 2355 2345 2329 2316 2314 2311 2307 2304 2301 2299 2298 2293 2292 2302 2309 2309 2315 2329 2342 2358 2373 2386 2385 2370 2349 2323 2300 2283 2270 2264 2273 2278 2281 2282 2279 2292 2315 2336 2360 2380 2395 2402 2396 2388 2387 2388 2390 2394 2395 2381 2356 2324 2292 2269 2244 2220 2194 2168 2139 2112 2095 2083 2078 2080 2079 2079 2078 2078 2078 2078 2078 2079 2080 2082 2083 2092 2101 2125 2123 2131 2150 2163 2173 2181 2176 2132 2127 2155 2185 2169 2164 2168 2172 2171 2178 2184 2175 2164 2158 2154 2177 2198 2197 2190 2186 2186
2363 2369 2364 2358 2348 2321 2301 2289 2287 2298 2313 2324 2333 2350 2360 2360 2364 2364 2368 2372 2375 2402 2409 2409 2409 2409 2415 2426 2426 2428 2445 2443 2444 2450 2467 2487 2517 2527 2539 2522 2517 2508 2495 2487 2489 2501 2506 2513 2518 2523 2536 2544 2547 2554 2554 2550 2547 2543 2555 2563 2573 2587 2589 2591 2593 2592 2589 2588 2596 2600 2607 2602 2595 2587 2534 2531 2531 2531 2535 2545 2587 2623 2636 2624 2623 2638 2674 2653 2622 2606 2610 2627 2657 2673 2684 2648 2629 2612 2604 2601 2605 2615 2662 2670 2635 2606 2608 2619 2626 2633 2660 2703 2742 2744 2757 2750 2739 2738 2738 2748 2772 2788 2805 2821 2792 2797 2816 2836 2853 2865 2888 2889 2881 2863 2865 2840 2839 2797 2741 2692 2667 2651 2644 2644 2644 2647 2649 2673 2683 2688 2670 2634 2595 2583 2583 2618 2668 2684 2693 2722 2759 2767 2787 2790 2793 2791 2799 2807 2809 2814 2815 2825 2834 2837 2842 2851 2860 2878 2899 2911 2935 2984 3026 3045 3052 3050 3054 3065 3083 3090 3106 3102 3098 3082 3070 3063 3057 3045 3044 3048 3021 2985 2931 2886 2837 2797 2764 2745 2733 2728 2730 2738 2755 2776 2813 2849 2879 2912 2957 2999 3042 3078 3104 3132 3138 3148 3170 3197 3214 3238 3273 3229 3192 3186 3178 3155 3172 3237 3202 3159 3144 3125 3123 3135 3161 3182 3191 3180 3180 3233 3281 3304 3261 3206 3160 3110 3076 3037 3010 2974 2945 2925 2911 2908 2905 2894 2875 2845 2802 2781 2769 2774 2782 2776 2782 2782 2784 2783 2789 2844 2865 2855 2851 2849 2833 2817 2801 2787 2774 2770 2776 2803 2837 2862 2873 2882 2868 2876 2901 2914 2925 2920 2929 2945 2975 3000 3017 3040 3080 3104 3112 3141 3153 3183 3198 3157 3127 3118 3160 3196 3206 3230 3249 3260 3213 3167 3115 3036 2977 2947 2907 2841 2768 2728 2694 2668 2657 2647 2639 2638 2659 2677 2732 2790 2837 2890 2943 2977 3026 3074 3121 3145 3093 3077 3108 3158 3163 3122 3094 3077 3091 3111 3186 3262 3285 3239 3213 3182 3187 3191 3218 3291 3251 3243 3244 3236 3208 3195 3194 3217 3261 3298 3306 3314 3339 3384 3412 3424 3431 3431 3448 3468 3429 3384 3346 3308 3294 3284 3273 3272 3247 3215 3188 3161 3094 3133 3173 3186 3200 3201 3161 3086 3068 3056 3053 3061 3082 3097 3109 3131 3174 3212 3211 3203 3200 3180 3141 3109 3085 3083 3073 3051 3019 2992 2947 2965 2995 2993 2964 2948 2905 2847 2790 2742 2697 2652 2675 2694 2656 2593 2584 2587 2573 2538 2544 2579 2572 2580 2552 2491 2477 2445 2389 2379 2390 2358 2305 2286 2235 2195 2163 2158 2158 2158 2158 2158 2158 2158 2158 2158 2158 2158 2164 2172 2209 2247 2293 2332 2358 2355 2349 2339 2326 2320 2316 2312 2308 2305 2302 2299 2296 2293 2290 2287 2289 2291 2297 2309 2322 2335 2351 2370 2386 2378 2359 2337 2313 2294 2282 2276 2285 2292 2297 2298 2292 2291 2308 2326 2349 2374 2391 2393 2389 2386 2385 2387 2389 2399 2405 2395 2371 2336 2303 2275 2249 2224 2198 2168 2139 2109 2093 2080 2079 2080 2082 2081 2079 2080 2080 2080 2079 2080 2081 2084 2094 2109 2125 2139 2144 2123 2147 2164 2175 2185 2196 2161 2129 2143 2179 2186 2179 2182 2184 2183 2184 2188 2178 2168 2165 2160 2165 2196 2200 2199 2198 2197
2371 2372 2358 2351 2320 2313 2297 2280 2288 2294 2302 2303 2312 2328 2333 2359 2368 2383 2390 2415 2423 2422 2429 2438 2444 2452 2458 2449 2448 2451 2443 2443 2443 2443 2447 2465 2468 2465 2465 2474 2472 2465 2465 2474 2488 2495 2499 2500 2509 2517 2523 2530 2535 2537 2540 2537 2537 2546 2538 2557 2569 2576 2581 2587 2585 2579 2570 2573 2587 2597 2596 2582 2585 2549 2531 2531 2531 2533 2548 2565 2580 2587 2584 2591 2605 2623 2642 2618 2619 2594 2602 2623 2663 2660 2664 2614 2597 2595 2599 2607 2626 2651 2661 2644 2613 2599 2612 2621 2620 2631 2659 2687 2709 2732 2744 2743 2739 2740 2738 2742 2795 2825 2825 2791 2784 2782 2809 2847 2845 2876 2879 2859 2825 2813 2796 2803 2774 2747 2711 2677 2658 2644 2644 2644 2644 2644 2665 2693 2719 2715 2679 2643 2603 2583 2590 2646 2672 2664 2688 2722 2766 2768 2769 2768 2766 2784 2801 2819 2829 2834 2842 2837 2844 2859 2868 2885 2898 2908 2929 2942 2968 2999 3008 3000 2996 3005 3011 3030 3056 3074 3082 3071 3065 3050 3040 3030 3017 3001 3009 3027 2982 2947 2904 2865 2821 2785 2757 2738 2729 2723 2726 2733 2753 2782 2818 2853 2884 2922 2967 3011 3044 3084 3106 3131 3136 3145 3173 3194 3205 3218 3267 3321 3285 3235 3207 3173 3180 3235 3226 3202 3173 3155 3155 3156 3164 3182 3204 3199 3184 3225 3297 3340 3280 3211 3158 3107 3068 3029 2994 2956 2926 2913 2908 2905 2906 2928 2934 2877 2813 2791 2805 2821 2818 2813 2805 2813 2813 2800 2803 2853 2865 2867 2851 2836 2826 2819 2803 2779 2779 2771 2776 2790 2836 2863 2893 2914 2911 2919 2949 2957 2984 2985 2999 3022 3045 3072 3089 3108 3150 3168 3183 3167 3193 3202 3186 3166 3167 3145 3195 3200 3187 3223 3264 3230 3186 3150 3093 3034 2989 2949 2901 2816 2757 2725 2707 2677 2667 2657 2649 2654 2669 2667 2714 2769 2821 2859 2913 2959 3000 3057 3109 3132 3134 3168 3144 3187 3206 3157 3125 3102 3124 3145 3189 3252 3327 3306 3245 3214 3211 3213 3237 3335 3274 3264 3269 3272 3225 3213 3215 3227 3254 3288 3311 3323 3343 3348 3341 3348 3345 3328 3369 3402 3401 3371 3342 3319 3308 3301 3290 3282 3252 3225 3198 3121 3056 3095 3131 3139 3149 3170 3155 3108 3025 3003 3004 3012 3023 3041 3047 3051 3114 3165 3151 3140 3151 3142 3101 3079 3071 3068 3059 3030 3001 2985 2938 2916 2952 2966 2942 2891 2873 2846 2792 2740 2689 2642 2618 2633 2646 2603 2537 2530 2518 2483 2519 2547 2518 2526 2530 2485 2429 2408 2380 2328 2330 2326 2275 2240 2204 2164 2158 2158 2158 2158 2158 2158 2158 2158 2158 2158 2158 2159 2169 2200 2240 2283 2322 2356 2361 2346 2337 2331 2325 2321 2318 2315 2310 2305 2304 2301 2297 2294 2290 2286 2280 2280 2279 2289 2299 2311 2325 2339 2354 2367 2366 2348 2324 2303 2291 2287 2295 2302 2307 2309 2308 2305 2310 2322 2341 2364 2382 2384 2383 2383 2385 2387 2389 2398 2404 2400 2376 2343 2309 2277 2249 2223 2194 2166 2135 2108 2092 2085 2082 2084 2084 2083 2083 2082 2081 2081 2081 2080 2084 2095 2109 2128 2148 2158 2148 2130 2141 2164 2179 2195 2203 2191 2140 2136 2157 2193 2193 2190 2191 2195 2193 2193 2184 2179 2174 2174 2162 2181 2199 2207 2210 2208
2391 2386 2380 2380 2354 2317 2291 2280 2286 2293 2312 2343 2364 2374 2391 2412 2409 2414 2441 2462 2464 2465 2492 2508 2507 2510 2495 2511 2493 2463 2447 2448 2454 2454 2467 2469 2465 2465 2465 2465 2465 2465 2465 2467 2483 2490 2500 2500 2510 2517 2521 2525 2525 2528 2530 2532 2536 2545 2533 2549 2560 2565 2575 2574 2572 2565 2557 2568 2594 2597 2591 2573 2547 2531 2531 2531 2534 2543 2562 2576 2584 2584 2578 2570 2572 2591 2566 2566 2562 2555 2545 2560 2596 2602 2596 2582 2577 2575 2598 2615 2635 2645 2673 2636 2597 2582 2590 2597 2609 2611 2625 2645 2682 2697 2723 2741 2741 2742 2742 2734 2730 2755 2738 2737 2749 2789 2807 2837 2868 2871 2856 2801 2764 2750 2719 2751 2717 2708 2689 2660 2644 2644 2644 2644 2646 2667 2703 2747 2768 2733 2690 2645 2607 2594 2583 2609 2624 2640 2682 2710 2747 2747 2748 2750 2768 2788 2812 2829 2847 2855 2855 2851 2865 2890 2904 2915 2926 2928 2934 2939 2943 2949 2958 2964 2966 2974 2987 3001 3034 3046 3049 3045 3037 3028 3014 2998 2980 2970 2983 2991 2953 2918 2882 2846 2807 2777 2752 2734 2723 2719 2721 2732 2752 2783 2816 2851 2889 2932 2973 3017 3046 3080 3100 3113 3129 3146 3157 3178 3188 3214 3252 3310 3357 3305 3224 3207 3209 3240 3246 3231 3206 3216 3205 3202 3202 3231 3245 3239 3207 3226 3311 3268 3229 3193 3147 3116 3080 3024 2982 2951 2915 2910 2908 2906 2918 2971 2986 2912 2841 2828 2853 2860 2860 2847 2831 2841 2827 2808 2813 2846 2873 2887 2857 2842 2826 2822 2813 2787 2779 2773 2776 2781 2827 2862 2905 2927 2974 3000 3013 3033 3062 3069 3092 3111 3128 3140 3152 3170 3185 3206 3199 3178 3189 3190 3178 3193 3217 3218 3169 3148 3150 3166 3187 3172 3148 3103 3064 3023 2967 2919 2835 2794 2758 2745 2715 2695 2682 2664 2667 2673 2693 2680 2703 2741 2790 2841 2885 2925 2976 3029 3068 3087 3127 3157 3198 3242 3271 3233 3157 3147 3166 3190 3230 3294 3369 3380 3303 3245 3233 3230 3263 3337 3287 3281 3299 3311 3262 3255 3251 3261 3283 3312 3329 3333 3332 3273 3277 3268 3263 3248 3262 3281 3354 3347 3332 3312 3289 3282 3278 3263 3238 3172 3167 3096 3018 3060 3067 3070 3085 3121 3126 3070 3022 2960 2935 2951 2970 2987 3004 3017 3093 3163 3103 3086 3097 3105 3049 3053 3051 3035 3013 2988 2961 2957 2909 2874 2907 2924 2907 2861 2813 2801 2779 2726 2680 2633 2580 2581 2593 2597 2541 2483 2470 2444 2491 2494 2470 2480 2494 2477 2434 2370 2339 2320 2273 2272 2239 2199 2169 2158 2158 2158 2158 2158 2158 2158 2158 2158 2158 2158 2158 2169 2190 2231 2275 2313 2353 2367 2364 2342 2335 2329 2326 2323 2319 2315 2312 2309 2306 2302 2299 2294 2291 2287 2283 2280 2277 2275 2277 2287 2299 2311 2324 2336 2345 2347 2330 2312 2302 2296 2304 2307 2310 2311 2310 2309 2311 2315 2334 2354 2377 2380 2382 2385 2386 2389 2392 2394 2394 2391 2373 2343 2310 2280 2249 2221 2196 2166 2131 2104 2092 2087 2084 2086 2086 2085 2084 2083 2082 2083 2082 2082 2097 2109 2127 2148 2164 2160 2144 2136 2140 2170 2187 2205 2211 2208 2175 2141 2144 2171 2206 2197 2199 2205 2203 2202 2200 2188 2184 2184 2167 2166 2187 2208 2218 2220
2406 2409 2395 2346 2333 2295 2278 2278 2288 2301 2333 2391 2451 2437 2448 2438 2435 2451 2472 2474 2472 2501 2495 2492 2493 2508 2517 2485 2471 2460 2452 2455 2461 2495 2525 2523 2517 2506 2493 2490 2484 2487 2485 2481 2474 2483 2496 2499 2512 2524 2515 2522 2526 2524 2526 2528 2534 2537 2524 2537 2541 2545 2551 2556 2552 2548 2546 2550 2560 2584 2592 2556 2531 2531 2532 2543 2559 2575 2579 2590 2593 2585 2582 2566 2559 2536 2513 2507 2507 2510 2525 2549 2555 2562 2567 2564 2559 2573 2620 2629 2628 2659 2646 2602 2584 2555 2577 2573 2576 2585 2591 2595 2614 2641 2696 2754 2750 2747 2736 2717 2702 2700 2703 2707 2717 2739 2764 2795 2830 2826 2802 2755 2720 2684 2677 2679 2692 2689 2672 2654 2645 2644 2644 2648 2668 2698 2750 2787 2781 2747 2706 2654 2609 2591 2571 2580 2593 2629 2673 2704 2731 2731 2734 2753 2773 2794 2824 2856 2869 2876 2877 2885 2899 2909 2922 2925 2923 2924 2923 2923 2923 2923 2939 2949 2953 2956 2959 2967 2991 3017 3031 3031 3022 3007 2992 2976 2963 2954 2956 2955 2929 2902 2863 2832 2804 2768 2741 2727 2717 2712 2716 2728 2750 2776 2812 2850 2894 2938 2985 3022 3051 3076 3085 3106 3118 3129 3150 3162 3177 3194 3240 3286 3324 3333 3271 3288 3280 3297 3305 3271 3266 3264 3254 3264 3264 3277 3288 3269 3242 3245 3308 3224 3187 3160 3141 3114 3084 3029 2991 2961 2922 2912 2912 2912 2945 3018 3012 2929 2875 2872 2910 2906 2910 2885 2865 2863 2839 2823 2826 2858 2899 2906 2869 2845 2832 2833 2803 2796 2782 2779 2775 2779 2819 2859 2903 2954 2986 3058 3091 3091 3084 3103 3125 3137 3143 3159 3173 3192 3197 3213 3206 3190 3185 3183 3188 3212 3242 3188 3147 3117 3100 3115 3126 3122 3095 3058 3026 2986 2919 2863 2818 2778 2779 2758 2739 2711 2694 2678 2685 2699 2702 2687 2697 2721 2765 2816 2850 2892 2938 2982 3019 3064 3102 3139 3172 3209 3253 3253 3213 3233 3236 3247 3296 3354 3448 3405 3309 3284 3266 3265 3294 3357 3307 3299 3320 3330 3318 3325 3311 3316 3352 3372 3368 3341 3310 3236 3189 3193 3194 3185 3190 3214 3234 3293 3300 3265 3232 3233 3202 3177 3170 3157 3098 3024 2979 3011 3000 3010 3027 3047 3072 3055 3009 2950 2894 2887 2905 2914 2922 2991 3067 3081 3065 3028 3043 3030 2999 3004 3012 2993 2971 2946 2941 2925 2867 2821 2857 2867 2860 2820 2777 2746 2742 2708 2665 2622 2573 2524 2547 2567 2555 2508 2447 2404 2442 2438 2448 2438 2452 2433 2405 2371 2320 2264 2260 2227 2198 2173 2158 2158 2158 2158 2158 2158 2158 2158 2158 2158 2158 2158 2171 2185 2219 2266 2306 2345 2368 2370 2357 2339 2336 2332 2328 2324 2321 2318 2314 2311 2307 2305 2300 2296 2291 2288 2285 2282 2279 2276 2273 2271 2277 2284 2294 2307 2316 2320 2319 2310 2304 2300 2304 2306 2307 2307 2306 2305 2304 2312 2326 2345 2367 2379 2385 2387 2390 2391 2391 2384 2376 2369 2354 2334 2304 2273 2246 2221 2197 2164 2131 2104 2093 2089 2087 2088 2088 2086 2085 2085 2085 2086 2084 2092 2108 2125 2147 2169 2171 2157 2146 2145 2148 2175 2195 2211 2216 2222 2204 2184 2162 2154 2194 2207 2205 2213 2216 2212 2208 2199 2193 2183 2170 2166 2168 2196 2219 2231
2370 2333 2313 2297 2281 2277 2280 2283 2305 2329 2361 2491 2500 2498 2473 2449 2469 2472 2479 2485 2485 2484 2498 2514 2503 2490 2477 2474 2471 2471 2472 2473 2473 2498 2518 2546 2552 2533 2517 2509 2512 2515 2509 2511 2516 2522 2528 2523 2517 2515 2515 2515 2515 2523 2523 2524 2525 2523 2523 2523 2525 2532 2535 2544 2543 2543 2544 2546 2545 2559 2554 2531 2532 2534 2545 2570 2585 2582 2581 2585 2582 2564 2553 2532 2521 2496 2488 2474 2471 2476 2495 2518 2524 2526 2531 2528 2540 2569 2578 2585 2593 2628 2581 2567 2552 2531 2536 2541 2557 2560 2564 2571 2598 2645 2709 2762 2768 2738 2712 2703 2693 2678 2682 2691 2708 2733 2752 2769 2791 2786 2750 2711 2687 2668 2662 2666 2669 2668 2653 2644 2644 2644 2647 2667 2696 2739 2802 2818 2796 2760 2698 2658 2606 2571 2554 2563 2583 2626 2669 2694 2700 2716 2742 2771 2791 2825 2862 2874 2881 2890 2902 2905 2913 2927 2930 2924 2923 2923 2923 2923 2923 2923 2923 2935 2939 2938 2948 2955 2969 2999 3029 3030 3014 2997 2979 2965 2957 2947 2936 2926 2910 2891 2860 2834 2794 2758 2730 2716 2706 2706 2713 2724 2748 2767 2811 2853 2893 2944 2993 3037 3048 3052 3060 3082 3107 3117 3129 3140 3157 3180 3210 3240 3289 3361 3379 3348 3364 3352 3329 3304 3299 3304 3302 3306 3329 3354 3351 3316 3293 3287 3291 3233 3184 3154 3135 3106 3074 3047 3037 3002 2955 2940 2926 2966 3026 3060 3026 2933 2915 2945 2968 2966 2968 2927 2914 2877 2847 2842 2838 2894 2931 2916 2875 2848 2843 2841 2817 2809 2790 2779 2778 2779 2813 2854 2917 2969 3026 3075 3104 3099 3090 3103 3125 3138 3153 3172 3197 3207 3204 3220 3210 3196 3192 3201 3196 3221 3267 3166 3131 3091 3056 3068 3069 3059 3039 3007 2981 2936 2888 2832 2802 2797 2787 2764 2737 2716 2707 2693 2705 2706 2702 2698 2696 2715 2743 2771 2809 2854 2888 2937 2981 3047 3088 3131 3176 3209 3240 3285 3289 3304 3341 3289 3325 3379 3457 3413 3398 3371 3324 3313 3354 3375 3323 3321 3349 3353 3346 3322 3333 3347 3321 3328 3297 3273 3246 3212 3154 3126 3124 3118 3126 3154 3182 3211 3226 3203 3176 3159 3130 3092 3094 3072 3053 3017 2942 2946 2943 2933 2972 3007 3021 3006 3003 2938 2872 2831 2844 2843 2865 2933 2991 3011 3013 2945 2943 2945 2939 2944 2975 2951 2927 2913 2890 2877 2833 2779 2793 2801 2809 2791 2752 2702 2689 2681 2647 2603 2555 2491 2507 2527 2551 2513 2461 2394 2378 2387 2410 2388 2404 2387 2355 2318 2284 2248 2219 2200 2182 2159 2158 2158 2158 2158 2158 2158 2158 2158 2158 2158 2163 2170 2182 2224 2263 2298 2338 2370 2376 2369 2352 2344 2339 2334 2329 2326 2323 2319 2315 2312 2309 2306 2302 2298 2293 2290 2287 2284 2281 2278 2274 2271 2267 2265 2267 2275 2284 2292 2294 2292 2289 2288 2290 2292 2295 2296 2296 2296 2299 2307 2320 2341 2364 2381 2392 2393 2395 2395 2392 2377 2358 2345 2328 2311 2281 2245 2217 2199 2185 2161 2133 2106 2095 2091 2090 2090 2089 2087 2088 2088 2089 2090 2093 2101 2120 2144 2168 2174 2164 2156 2157 2151 2153 2181 2204 2219 2225 2233 2223 2218 2191 2155 2186 2218 2216 2220 2223 2221 2217 2209 2192 2182 2174 2168 2166 2178 2204 2230
2337 2322 2306 2280 2273 2274 2281 2295 2324 2355 2474 2498 2497 2501 2488 2469 2486 2474 2476 2500 2516 2536 2526 2503 2479 2463 2466 2477 2483 2488 2491 2495 2500 2506 2557 2565 2566 2542 2550 2554 2565 2575 2554 2550 2545 2554 2573 2539 2533 2534 2526 2525 2521 2523 2523 2523 2523 2523 2523 2523 2536 2537 2535 2532 2540 2540 2544 2543 2537 2523 2534 2531 2536 2540 2549 2582 2578 2574 2572 2564 2543 2527 2511 2506 2481 2468 2454 2446 2447 2458 2472 2474 2483 2491 2484 2496 2516 2531 2539 2551 2563 2569 2548 2531 2523 2524 2513 2521 2529 2532 2548 2560 2587 2628 2698 2768 2747 2700 2682 2665 2663 2665 2679 2698 2732 2761 2778 2785 2770 2744 2709 2688 2670 2657 2654 2654 2670 2658 2644 2644 2645 2654 2669 2697 2731 2798 2817 2822 2767 2711 2678 2631 2586 2552 2542 2553 2576 2611 2626 2668 2699 2730 2761 2785 2807 2830 2863 2873 2873 2889 2899 2913 2930 2929 2934 2924 2923 2923 2923 2923 2923 2923 2923 2929 2933 2934 2937 2953 2970 3010 3042 3034 3014 2992 2975 2964 2956 2952 2929 2912 2891 2877 2850 2818 2782 2745 2726 2708 2702 2703 2706 2720 2740 2766 2809 2847 2892 2946 3001 3048 3041 3034 3042 3064 3086 3100 3115 3121 3143 3164 3188 3211 3269 3310 3325 3317 3306 3296 3282 3261 3257 3256 3262 3275 3288 3299 3320 3353 3346 3329 3278 3239 3186 3159 3146 3125 3102 3129 3108 3047 2981 2971 2956 3025 3085 3086 2993 2949 2951 3011 3063 3050 3016 2959 2929 2888 2854 2845 2859 2903 2951 2928 2895 2867 2852 2842 2825 2813 2794 2783 2791 2790 2819 2858 2924 2972 3050 3071 3106 3108 3095 3102 3122 3140 3164 3197 3207 3213 3215 3212 3199 3186 3194 3209 3213 3238 3270 3179 3101 3055 3030 3033 3013 2999 2980 2966 2923 2883 2853 2822 2806 2804 2779 2758 2741 2735 2718 2704 2728 2709 2721 2706 2706 2706 2722 2755 2783 2818 2853 2888 2963 3014 3069 3117 3173 3242 3278 3290 3331 3363 3388 3365 3389 3450 3486 3512 3475 3503 3492 3437 3430 3363 3352 3367 3387 3360 3325 3278 3247 3269 3237 3247 3216 3207 3180 3183 3134 3065 3053 3043 3062 3092 3120 3152 3181 3159 3120 3086 3066 3012 3024 2979 2966 3002 2937 2881 2864 2881 2902 2936 2961 2937 2948 2914 2854 2792 2780 2770 2816 2871 2921 2933 2936 2881 2856 2868 2883 2894 2932 2911 2893 2885 2855 2836 2806 2749 2735 2742 2759 2755 2725 2688 2638 2629 2614 2583 2529 2468 2449 2478 2501 2496 2454 2390 2336 2332 2362 2344 2359 2334 2302 2267 2230 2202 2188 2172 2159 2158 2158 2158 2158 2158 2158 2158 2158 2158 2158 2158 2177 2186 2227 2256 2302 2335 2367 2376 2378 2364 2352 2347 2342 2337 2333 2329 2325 2321 2317 2314 2312 2308 2304 2300 2295 2292 2290 2287 2283 2280 2277 2275 2272 2266 2262 2258 2255 2261 2265 2266 2264 2262 2264 2270 2274 2278 2280 2282 2289 2300 2315 2338 2361 2381 2400 2404 2401 2400 2395 2381 2359 2336 2308 2287 2258 2231 2208 2184 2170 2155 2129 2107 2095 2093 2093 2093 2091 2089 2091 2091 2091 2093 2097 2112 2136 2159 2179 2175 2158 2170 2169 2162 2158 2188 2214 2227 2234 2244 2238 2229 2212 2161 2195 2216 2222 2230 2231 2234 2226 2210 2198 2187 2178 2170 2166 2167 2189 2221
2324 2295 2281 2274 2273 2276 2286 2309 2335 2393 2466 2473 2504 2494 2471 2460 2463 2486 2516 2521 2511 2503 2487 2466 2457 2462 2471 2483 2495 2503 2515 2531 2538 2546 2560 2561 2555 2558 2580 2597 2583 2577 2570 2574 2568 2557 2568 2558 2551 2549 2545 2551 2554 2559 2548 2530 2537 2541 2530 2523 2523 2523 2523 2523 2529 2528 2545 2538 2527 2523 2527 2534 2535 2535 2546 2560 2557 2554 2538 2522 2500 2480 2469 2461 2451 2432 2423 2421 2424 2438 2445 2450 2461 2462 2468 2475 2489 2497 2519 2530 2535 2520 2514 2506 2509 2517 2510 2493 2499 2513 2525 2535 2578 2601 2636 2698 2702 2669 2658 2650 2654 2666 2691 2724 2758 2782 2793 2765 2748 2717 2694 2672 2660 2654 2651 2655 2645 2644 2644 2649 2659 2675 2701 2737 2782 2824 2843 2774 2720 2671 2648 2609 2566 2534 2532 2544 2565 2598 2636 2676 2709 2738 2788 2809 2823 2841 2849 2846 2859 2892 2952 2951 2951 2950 2949 2938 2929 2923 2923 2923 2923 2923 2929 2936 2939 2944 2953 2962 2985 3044 3088 3036 3012 2989 2977 2962 2963 2962 2930 2903 2874 2846 2824 2796 2767 2742 2718 2705 2700 2701 2705 2719 2735 2763 2799 2840 2893 2944 2999 3042 3024 3018 3026 3035 3059 3079 3094 3112 3125 3148 3173 3204 3242 3238 3251 3240 3243 3236 3231 3216 3209 3194 3210 3227 3247 3250 3269 3297 3326 3277 3228 3208 3189 3190 3188 3171 3178 3172 3113 3043 3011 2999 3005 3077 3128 3061 3016 2992 2995 3079 3156 3121 3062 2991 2938 2893 2858 2849 2868 2920 2937 2935 2901 2887 2859 2853 2841 2829 2800 2793 2790 2796 2831 2869 2925 2987 3048 3074 3114 3134 3106 3109 3118 3138 3169 3202 3206 3218 3216 3200 3189 3180 3199 3208 3220 3253 3273 3153 3075 3028 3011 3006 2978 2964 2950 2925 2875 2857 2823 2815 2814 2807 2784 2766 2778 2751 2733 2718 2729 2734 2731 2722 2718 2718 2722 2742 2763 2783 2808 2871 2922 2995 3045 3093 3141 3193 3248 3299 3342 3378 3408 3430 3436 3466 3473 3501 3535 3561 3544 3497 3424 3391 3395 3372 3340 3303 3264 3210 3161 3169 3158 3183 3155 3153 3122 3125 3088 3044 3000 2993 3007 3041 3067 3101 3088 3086 3096 3034 2999 2976 2930 2917 2893 2926 2922 2914 2847 2805 2848 2883 2903 2877 2874 2863 2832 2772 2713 2712 2762 2818 2834 2846 2884 2827 2784 2802 2834 2824 2868 2868 2862 2847 2819 2776 2783 2729 2677 2686 2707 2715 2704 2676 2644 2603 2570 2544 2514 2458 2392 2422 2439 2456 2456 2402 2343 2293 2320 2304 2304 2280 2250 2218 2185 2162 2160 2158 2158 2158 2158 2158 2158 2158 2158 2158 2158 2158 2158 2164 2210 2225 2221 2272 2320 2367 2375 2380 2374 2366 2360 2354 2348 2341 2337 2333 2328 2324 2321 2318 2314 2311 2306 2301 2298 2296 2293 2289 2287 2283 2282 2281 2280 2273 2266 2262 2257 2254 2251 2250 2248 2245 2241 2241 2241 2250 2255 2264 2276 2290 2309 2335 2364 2390 2402 2407 2407 2405 2401 2389 2370 2349 2325 2307 2285 2263 2231 2212 2195 2175 2155 2116 2097 2095 2095 2095 2094 2091 2093 2093 2094 2095 2105 2123 2148 2173 2186 2175 2173 2186 2191 2178 2158 2193 2219 2232 2239 2245 2246 2244 2218 2178 2191 2221 2219 2226 2242 2245 2227 2225 2210 2190 2180 2172 2169 2171 2179 2207
2302 2278 2275 2273 2274 2279 2295 2326 2349 2413 2432 2499 2497 2468 2457 2459 2470 2490 2493 2505 2488 2463 2450 2447 2448 2455 2472 2490 2501 2521 2549 2573 2573 2573 2574 2560 2555 2560 2566 2579 2588 2568 2558 2561 2557 2558 2573 2572 2575 2577 2572 2569 2567 2562 2553 2558 2564 2571 2548 2525 2542 2541 2536 2529 2523 2523 2523 2523 2523 2523 2526 2535 2534 2539 2553 2552 2548 2534 2511 2481 2455 2430 2423 2413 2402 2393 2389 2398 2408 2421 2426 2433 2438 2441 2451 2458 2464 2475 2483 2492 2484 2482 2483 2483 2484 2485 2485 2486 2497 2511 2527 2547 2564 2602 2623 2669 2668 2658 2646 2646 2654 2685 2727 2748 2791 2805 2800 2763 2727 2692 2674 2660 2656 2657 2649 2645 2644 2644 2653 2664 2683 2712 2742 2772 2813 2859 2786 2728 2675 2630 2621 2589 2542 2523 2528 2547 2595 2621 2646 2687 2729 2782 2816 2837 2852 2846 2829 2835 2863 2915 2937 2935 2936 2947 2946 2950 2951 2953 2928 2923 2923 2924 2939 2951 2953 2960 2972 2995 3041 3072 3099 3044 3015 2994 2983 2974 2976 2959 2926 2896 2867 2832 2800 2778 2756 2731 2713 2703 2698 2701 2708 2723 2739 2761 2794 2836 2890 2947 3002 3011 2999 3002 3003 3011 3027 3045 3064 3087 3110 3129 3152 3189 3193 3188 3194 3189 3198 3191 3196 3193 3187 3181 3187 3200 3216 3218 3236 3267 3321 3320 3248 3235 3234 3243 3235 3210 3215 3178 3109 3069 3050 3037 3066 3134 3115 3094 3099 3065 3053 3177 3254 3162 3076 3009 2954 2898 2864 2858 2893 2925 2946 2934 2915 2885 2865 2865 2860 2828 2803 2796 2795 2804 2829 2869 2920 2999 3036 3064 3108 3138 3142 3126 3125 3118 3123 3162 3199 3222 3216 3197 3180 3174 3180 3207 3228 3258 3266 3142 3057 3025 3000 2989 2962 2953 2945 2904 2861 2839 2828 2816 2826 2816 2808 2801 2806 2769 2746 2730 2735 2740 2737 2742 2727 2718 2718 2726 2746 2748 2781 2831 2899 2957 3019 3067 3106 3169 3231 3293 3340 3377 3408 3443 3467 3475 3463 3466 3492 3512 3483 3438 3406 3359 3319 3297 3269 3237 3205 3162 3102 3099 3086 3129 3082 3088 3077 3065 3043 2998 2967 2938 2951 2981 3039 3045 3026 3021 3050 3048 2974 2906 2867 2843 2837 2844 2866 2888 2869 2779 2781 2824 2838 2818 2810 2816 2777 2739 2676 2662 2712 2750 2770 2764 2806 2781 2716 2747 2794 2764 2812 2824 2805 2792 2764 2738 2740 2720 2665 2631 2654 2674 2678 2650 2614 2588 2571 2525 2499 2459 2396 2351 2370 2396 2424 2404 2343 2285 2268 2279 2249 2231 2203 2171 2158 2158 2158 2158 2158 2158 2158 2158 2158 2158 2158 2158 2158 2158 2165 2209 2250 2280 2267 2269 2315 2374 2391 2377 2375 2371 2366 2361 2355 2347 2342 2339 2334 2328 2330 2326 2320 2315 2310 2303 2301 2299 2297 2293 2291 2290 2289 2288 2286 2281 2277 2273 2269 2266 2267 2264 2266 2268 2265 2254 2243 2230 2228 2242 2260 2277 2300 2328 2359 2393 2408 2411 2412 2413 2408 2401 2384 2367 2348 2332 2318 2292 2259 2230 2202 2173 2158 2133 2111 2102 2097 2098 2096 2095 2096 2096 2099 2103 2112 2133 2157 2185 2195 2179 2184 2197 2198 2189 2167 2194 2218 2229 2244 2251 2251 2250 2236 2198 2180 2225 2231 2225 2243 2247 2240 2242 2214 2199 2186 2176 2174 2175 2177 2190
2282 2273 2272 2273 2277 2289 2314 2353 2374 2402 2439 2464 2468 2456 2447 2448 2454 2460 2474 2470 2450 2447 2447 2447 2448 2458 2473 2487 2503 2554 2578 2584 2588 2593 2571 2559 2558 2561 2579 2586 2599 2558 2558 2560 2558 2559 2571 2597 2593 2592 2590 2586 2575 2564 2556 2555 2571 2571 2550 2559 2568 2569 2544 2543 2537 2534 2529 2523 2523 2537 2539 2536 2535 2534 2524 2514 2495 2485 2473 2442 2411 2389 2388 2388 2385 2387 2389 2398 2400 2402 2406 2414 2422 2419 2424 2449 2462 2467 2472 2482 2482 2487 2487 2492 2499 2504 2508 2499 2499 2521 2531 2546 2569 2634 2662 2682 2647 2644 2632 2642 2665 2722 2763 2772 2796 2817 2781 2712 2695 2673 2666 2667 2670 2667 2644 2644 2644 2650 2663 2686 2719 2757 2779 2817 2847 2839 2748 2677 2638 2595 2591 2561 2521 2507 2532 2568 2602 2624 2658 2696 2737 2790 2848 2867 2850 2829 2829 2831 2856 2901 2914 2919 2925 2931 2935 2942 2949 2950 2941 2926 2947 2954 2952 2948 2958 2970 3002 3044 3066 3097 3110 3060 3023 3002 2991 2986 2978 2947 2916 2891 2855 2818 2785 2758 2740 2721 2709 2697 2696 2702 2711 2722 2743 2765 2798 2840 2887 2947 2984 2966 2969 2972 2966 2975 2993 3022 3043 3066 3073 3111 3149 3151 3145 3138 3138 3150 3157 3166 3177 3178 3172 3176 3174 3173 3186 3188 3202 3249 3302 3350 3322 3310 3328 3318 3276 3255 3214 3185 3148 3094 3075 3087 3117 3143 3152 3197 3185 3143 3138 3272 3298 3136 3080 3014 2954 2904 2881 2869 2904 2922 2951 2938 2937 2893 2874 2877 2862 2852 2822 2806 2800 2816 2836 2875 2931 2983 3022 3036 3077 3119 3156 3155 3136 3118 3118 3118 3161 3216 3222 3203 3184 3179 3168 3191 3218 3242 3268 3162 3064 3023 3001 2975 2976 2956 2921 2884 2852 2841 2846 2842 2853 2853 2869 2844 2826 2798 2756 2755 2754 2743 2745 2741 2741 2727 2718 2720 2726 2730 2755 2803 2872 2926 2992 3042 3097 3153 3209 3266 3319 3351 3403 3450 3487 3476 3457 3434 3447 3450 3439 3388 3348 3299 3246 3230 3206 3180 3143 3110 3048 3026 3036 3050 3022 3024 3004 3017 2989 2944 2919 2879 2893 2923 2989 2988 2952 2964 3001 2981 2963 2907 2829 2781 2774 2767 2798 2824 2828 2744 2731 2758 2778 2772 2742 2743 2713 2678 2645 2637 2660 2683 2697 2705 2711 2709 2666 2677 2707 2701 2751 2773 2736 2721 2713 2706 2680 2698 2651 2616 2595 2626 2644 2620 2582 2547 2530 2519 2501 2447 2405 2352 2302 2337 2361 2365 2329 2282 2246 2231 2214 2198 2179 2158 2158 2158 2158 2158 2158 2158 2158 2158 2158 2158 2158 2158 2158 2165 2211 2248 2292 2327 2327 2312 2328 2365 2393 2391 2385 2378 2374 2368 2361 2352 2356 2353 2352 2344 2338 2336 2333 2329 2321 2313 2308 2305 2303 2302 2301 2300 2299 2297 2295 2293 2289 2287 2285 2282 2285 2286 2290 2293 2291 2278 2260 2246 2232 2224 2240 2263 2288 2317 2348 2381 2406 2417 2419 2420 2416 2412 2403 2393 2375 2355 2334 2303 2269 2235 2207 2175 2156 2132 2116 2106 2101 2101 2099 2099 2101 2103 2104 2107 2122 2145 2172 2198 2198 2182 2194 2201 2200 2192 2168 2186 2203 2220 2245 2258 2254 2257 2256 2231 2195 2203 2234 2233 2241 2257 2258 2249 2224 2222 2204 2182 2179 2179 2180 2187
2273 2269 2272 2277 2289 2316 2347 2378 2402 2407 2440 2462 2452 2442 2438 2441 2447 2451 2447 2447 2447 2447 2449 2450 2450 2458 2471 2487 2524 2558 2586 2618 2606 2589 2584 2582 2583 2592 2601 2582 2567 2562 2558 2560 2557 2558 2557 2560 2558 2585 2605 2595 2573 2566 2556 2548 2550 2551 2563 2569 2549 2531 2532 2535 2540 2539 2534 2523 2527 2532 2535 2548 2556 2550 2515 2485 2465 2447 2433 2412 2389 2387 2385 2384 2386 2386 2387 2389 2393 2389 2389 2394 2411 2450 2465 2476 2494 2502 2502 2510 2509 2514 2510 2515 2516 2519 2520 2519 2517 2530 2537 2547 2569 2605 2654 2631 2624 2626 2636 2655 2702 2755 2740 2752 2785 2756 2722 2691 2678 2672 2677 2686 2684 2645 2644 2644 2644 2654 2677 2732 2775 2797 2823 2853 2816 2744 2709 2629 2584 2556 2549 2531 2499 2505 2531 2560 2592 2625 2661 2721 2795 2843 2863 2849 2829 2829 2829 2829 2834 2849 2878 2896 2911 2923 2933 2941 2944 2937 2926 2926 2942 2959 2961 2956 2961 2986 3051 3092 3116 3130 3111 3073 3032 3021 3005 2989 2972 2928 2909 2882 2845 2800 2765 2743 2728 2713 2703 2691 2694 2705 2721 2734 2753 2781 2810 2844 2889 2915 2924 2935 2937 2943 2945 2954 2971 3000 3020 3032 3034 3059 3120 3114 3115 3121 3132 3143 3149 3152 3161 3156 3166 3172 3166 3153 3160 3165 3196 3244 3287 3356 3344 3312 3294 3294 3273 3244 3201 3158 3120 3083 3093 3111 3129 3153 3184 3199 3225 3255 3218 3303 3226 3149 3087 3017 2958 2912 2891 2889 2911 2928 2953 2950 2930 2911 2892 2879 2863 2853 2829 2807 2804 2823 2843 2872 2920 2958 2992 3009 3034 3079 3121 3196 3182 3126 3119 3129 3160 3206 3233 3211 3198 3172 3161 3173 3216 3229 3268 3170 3085 3035 3003 2989 2990 2947 2931 2875 2854 2859 2857 2879 2900 2906 2909 2875 2844 2819 2779 2774 2778 2762 2753 2762 2772 2739 2734 2724 2734 2726 2736 2787 2853 2907 2965 3019 3076 3125 3183 3242 3299 3367 3425 3479 3509 3490 3455 3410 3388 3383 3375 3342 3293 3244 3198 3153 3158 3127 3090 3061 3010 2971 2974 2974 2958 2957 2934 2955 2919 2907 2857 2842 2835 2874 2924 2954 2899 2896 2931 2905 2890 2860 2840 2767 2705 2694 2724 2759 2771 2696 2695 2685 2714 2711 2678 2672 2657 2605 2583 2604 2606 2644 2631 2630 2629 2642 2614 2605 2636 2645 2695 2714 2679 2659 2654 2682 2632 2641 2635 2597 2575 2567 2590 2589 2550 2516 2493 2493 2493 2468 2408 2350 2297 2279 2303 2311 2279 2244 2229 2221 2208 2196 2177 2158 2158 2158 2158 2158 2158 2158 2158 2158 2158 2158 2158 2158 2168 2208 2246 2294 2336 2359 2373 2362 2379 2370 2401 2401 2398 2392 2384 2375 2376 2376 2379 2379 2375 2365 2352 2355 2356 2349 2342 2333 2331 2328 2325 2321 2317 2317 2317 2316 2312 2308 2304 2302 2301 2299 2300 2303 2306 2307 2303 2288 2272 2255 2239 2225 2218 2241 2271 2299 2328 2359 2391 2415 2427 2428 2427 2425 2421 2414 2401 2379 2347 2311 2274 2242 2214 2192 2171 2145 2118 2106 2105 2103 2103 2103 2106 2108 2110 2115 2133 2157 2187 2209 2202 2190 2200 2206 2203 2186 2181 2194 2203 2223 2242 2265 2264 2268 2262 2250 2233 2206 2225 2246 2246 2265 2276 2261 2234 2234 2223 2191 2186 2185 2186 2189
2266 2270 2277 2295 2326 2355 2377 2415 2422 2413 2438 2442 2438 2438 2438 2438 2442 2445 2450 2455 2464 2471 2476 2475 2474 2472 2481 2505 2533 2580 2594 2599 2620 2614 2605 2619 2625 2597 2584 2576 2578 2570 2556 2554 2556 2556 2556 2558 2568 2607 2597 2581 2575 2575 2558 2542 2535 2547 2530 2527 2527 2527 2532 2535 2539 2548 2535 2524 2530 2537 2543 2554 2561 2549 2507 2483 2457 2440 2423 2402 2388 2384 2384 2384 2388 2388 2388 2387 2388 2389 2389 2415 2439 2449 2450 2480 2504 2521 2527 2532 2528 2527 2525 2536 2535 2533 2533 2540 2541 2548 2551 2560 2572 2593 2598 2612 2612 2629 2647 2666 2742 2714 2693 2698 2716 2720 2687 2682 2687 2690 2698 2658 2647 2644 2644 2644 2644 2657 2684 2768 2829 2851 2841 2798 2732 2684 2633 2589 2547 2525 2516 2504 2498 2520 2543 2570 2596 2629 2681 2736 2798 2828 2831 2828 2841 2829 2829 2829 2829 2839 2852 2884 2906 2924 2934 2944 2948 2944 2926 2926 2929 2952 2957 2960 2971 3004 3071 3128 3148 3152 3100 3062 3043 3029 3000 2977 2957 2924 2900 2872 2833 2792 2754 2731 2710 2701 2693 2690 2696 2710 2724 2741 2765 2790 2820 2855 2878 2881 2894 2913 2919 2924 2929 2935 2945 2967 2994 3003 3005 3020 3060 3087 3111 3116 3123 3131 3134 3143 3142 3147 3158 3157 3153 3142 3143 3154 3198 3242 3282 3320 3300 3272 3251 3242 3229 3209 3173 3134 3092 3075 3092 3111 3132 3155 3181 3200 3204 3255 3254 3284 3237 3159 3093 3034 2984 2924 2898 2908 2923 2948 2962 2951 2936 2940 2916 2876 2868 2856 2839 2816 2817 2826 2841 2862 2893 2931 2953 2976 3004 3036 3073 3136 3194 3200 3177 3194 3215 3263 3244 3219 3200 3168 3156 3165 3183 3225 3274 3264 3125 3063 3014 3013 3008 2967 2925 2876 2879 2885 2882 2908 2946 2971 2949 2917 2862 2821 2824 2790 2794 2779 2769 2779 2805 2761 2739 2734 2759 2735 2735 2776 2826 2890 2952 3000 3056 3103 3164 3230 3306 3373 3444 3497 3544 3492 3409 3355 3327 3321 3321 3288 3246 3197 3147 3100 3095 3073 3042 3004 2972 2923 2910 2908 2894 2901 2864 2892 2854 2868 2817 2783 2779 2826 2876 2888 2854 2830 2849 2840 2828 2787 2783 2763 2695 2629 2669 2711 2696 2667 2594 2627 2644 2637 2630 2598 2598 2552 2517 2554 2561 2595 2576 2563 2567 2567 2568 2559 2564 2589 2626 2655 2617 2596 2584 2612 2593 2594 2607 2572 2565 2519 2535 2548 2524 2473 2437 2453 2459 2442 2398 2347 2319 2265 2250 2259 2233 2212 2212 2208 2201 2189 2173 2158 2158 2158 2158 2158 2158 2158 2158 2158 2158 2158 2158 2170 2215 2251 2284 2329 2365 2387 2378 2387 2404 2386 2410 2411 2411 2405 2399 2389 2399 2396 2396 2395 2389 2377 2367 2377 2378 2373 2363 2356 2352 2348 2346 2344 2341 2341 2341 2340 2337 2333 2329 2325 2320 2314 2312 2312 2312 2309 2302 2289 2274 2257 2242 2229 2219 2218 2247 2278 2305 2335 2363 2393 2419 2438 2444 2440 2434 2428 2412 2384 2347 2309 2273 2245 2216 2195 2172 2142 2114 2110 2108 2106 2107 2109 2112 2114 2116 2125 2145 2171 2200 2217 2204 2208 2211 2212 2207 2196 2191 2195 2206 2222 2240 2265 2269 2271 2273 2266 2268 2207 2223 2261 2259 2277 2287 2267 2246 2243 2233 2202 2194 2192 2192 2195
2269 2284 2305 2340 2374 2410 2438 2458 2449 2436 2432 2435 2437 2438 2438 2438 2438 2459 2475 2486 2495 2499 2500 2499 2497 2498 2505 2512 2535 2548 2584 2625 2640 2609 2603 2602 2580 2584 2576 2568 2560 2551 2551 2554 2558 2558 2557 2560 2559 2576 2557 2558 2585 2573 2551 2534 2527 2527 2527 2527 2527 2531 2536 2539 2540 2540 2535 2540 2550 2550 2550 2557 2555 2539 2498 2475 2450 2439 2421 2401 2387 2382 2385 2389 2389 2390 2392 2389 2389 2401 2406 2416 2425 2426 2443 2488 2513 2533 2536 2536 2536 2532 2535 2543 2546 2551 2560 2566 2562 2556 2560 2570 2577 2585 2596 2605 2614 2628 2641 2666 2682 2686 2679 2680 2694 2682 2678 2696 2721 2720 2682 2649 2644 2644 2644 2648 2661 2674 2702 2766 2813 2804 2763 2709 2642 2590 2571 2547 2509 2500 2491 2489 2502 2526 2547 2581 2608 2640 2684 2733 2779 2809 2818 2830 2840 2830 2829 2829 2829 2840 2864 2892 2916 2938 2970 2992 2992 2965 2956 2952 2951 2957 2962 2974 3002 3057 3092 3136 3171 3158 3102 3077 3043 3017 2985 2960 2950 2916 2886 2852 2810 2774 2743 2720 2700 2689 2683 2690 2700 2714 2732 2744 2764 2794 2830 2853 2857 2859 2877 2888 2891 2889 2908 2922 2936 2948 2964 2979 2991 3009 3044 3069 3093 3097 3109 3122 3121 3131 3129 3130 3136 3139 3133 3137 3141 3162 3223 3258 3293 3276 3254 3236 3219 3202 3191 3172 3136 3100 3060 3053 3081 3115 3150 3174 3190 3224 3229 3264 3279 3277 3251 3175 3123 3087 3023 2960 2922 2928 2937 2990 2986 2961 2971 2945 2912 2899 2897 2868 2842 2824 2820 2824 2835 2857 2885 2905 2929 2955 2972 3004 3036 3082 3142 3314 3302 3297 3312 3284 3248 3223 3198 3169 3154 3160 3179 3226 3277 3229 3144 3071 3023 3031 3016 2992 2934 2907 2905 2907 2908 2925 2979 3008 2985 2942 2901 2865 2835 2805 2811 2824 2801 2808 2799 2778 2756 2744 2756 2743 2735 2757 2810 2881 2942 2977 3033 3092 3146 3204 3283 3368 3435 3499 3548 3404 3345 3304 3259 3262 3271 3239 3198 3154 3107 3055 3033 3024 2992 2970 2917 2876 2850 2846 2832 2827 2821 2825 2798 2819 2772 2744 2726 2772 2808 2822 2791 2760 2769 2760 2769 2723 2717 2707 2666 2587 2596 2655 2638 2611 2561 2562 2575 2557 2561 2536 2536 2510 2463 2500 2517 2536 2527 2503 2512 2507 2509 2518 2516 2536 2561 2600 2570 2543 2523 2543 2555 2562 2568 2544 2541 2497 2479 2504 2474 2436 2390 2389 2405 2389 2351 2311 2285 2254 2220 2215 2200 2197 2196 2194 2189 2178 2167 2158 2158 2158 2158 2158 2158 2158 2158 2158 2170 2183 2185 2208 2251 2294 2333 2364 2391 2389 2385 2401 2418 2416 2406 2422 2425 2422 2419 2412 2417 2414 2411 2407 2399 2391 2384 2384 2383 2380 2375 2370 2368 2367 2367 2366 2365 2364 2364 2364 2359 2356 2353 2344 2334 2326 2320 2318 2315 2306 2295 2283 2270 2257 2243 2230 2221 2215 2220 2250 2280 2304 2334 2362 2389 2411 2432 2453 2445 2434 2416 2379 2342 2302 2267 2233 2211 2190 2166 2137 2117 2113 2109 2109 2111 2114 2119 2122 2121 2135 2159 2188 2219 2224 2206 2223 2224 2218 2210 2212 2208 2193 2210 2223 2241 2266 2281 2280 2286 2282 2280 2234 2230 2255 2284 2288 2297 2279 2254 2253 2237 2212 2205 2204 2208 2203
2287 2317 2357 2388 2430 2466 2489 2491 2468 2440 2432 2432 2435 2438 2438 2447 2463 2478 2496 2507 2518 2527 2529 2526 2528 2529 2528 2531 2538 2551 2581 2620 2606 2599 2595 2582 2572 2561 2550 2547 2546 2550 2557 2559 2563 2564 2558 2560 2555 2551 2544 2554 2563 2553 2538 2527 2527 2527 2527 2530 2537 2539 2541 2543 2544 2544 2543 2548 2559 2556 2558 2559 2555 2545 2500 2467 2460 2442 2427 2403 2387 2382 2384 2387 2389 2389 2393 2395 2401 2405 2410 2419 2432 2453 2463 2487 2499 2521 2535 2535 2535 2533 2535 2544 2549 2562 2577 2579 2569 2569 2575 2580 2583 2592 2602 2606 2613 2630 2635 2649 2667 2679 2685 2696 2677 2661 2668 2672 2684 2679 2665 2644 2644 2645 2657 2669 2695 2720 2740 2760 2759 2735 2681 2599 2542 2530 2524 2503 2480 2482 2486 2501 2516 2540 2569 2586 2608 2640 2679 2725 2765 2794 2818 2824 2830 2844 2833 2837 2845 2860 2879 2910 2949 2974 3016 3066 3065 3038 3015 2990 2992 3007 3022 3050 3065 3099 3145 3166 3185 3159 3130 3080 3038 2999 2964 2953 2937 2914 2872 2833 2794 2756 2732 2708 2694 2680 2680 2686 2698 2709 2726 2747 2772 2801 2824 2833 2835 2844 2851 2861 2878 2890 2904 2916 2930 2947 2962 2973 2984 2997 3030 3052 3073 3091 3108 3105 3111 3113 3113 3116 3113 3118 3131 3151 3143 3184 3253 3281 3268 3248 3227 3203 3179 3163 3140 3126 3109 3074 3033 3037 3090 3143 3190 3216 3217 3243 3261 3289 3296 3273 3244 3201 3154 3113 3080 2982 2967 2953 2957 2997 2989 2975 2974 2941 2947 2931 2917 2889 2851 2838 2827 2828 2829 2853 2888 2901 2926 2938 2956 2980 3006 3044 3102 3280 3386 3365 3320 3281 3244 3222 3190 3164 3152 3161 3184 3223 3271 3220 3151 3097 3046 3045 3004 2964 2929 2943 2943 2946 2950 2969 2984 3021 3006 2966 2922 2905 2859 2822 2830 2851 2830 2822 2810 2807 2780 2752 2762 2753 2736 2760 2802 2857 2924 2964 3015 3075 3134 3198 3273 3342 3424 3499 3519 3396 3312 3249 3191 3188 3208 3194 3148 3109 3068 3025 2984 2970 2949 2917 2867 2804 2796 2783 2775 2768 2758 2748 2734 2742 2733 2693 2675 2715 2739 2747 2719 2721 2695 2698 2677 2671 2642 2625 2615 2546 2518 2575 2602 2555 2521 2469 2504 2502 2497 2486 2477 2466 2415 2440 2465 2469 2455 2438 2452 2452 2447 2464 2454 2479 2517 2547 2519 2485 2470 2485 2494 2529 2529 2504 2504 2461 2424 2451 2426 2394 2349 2337 2354 2331 2301 2271 2234 2216 2203 2200 2190 2185 2182 2180 2176 2170 2161 2158 2158 2158 2158 2158 2158 2158 2158 2158 2180 2207 2221 2242 2282 2328 2378 2400 2395 2391 2387 2405 2430 2435 2433 2434 2438 2443 2442 2433 2433 2430 2426 2420 2413 2404 2397 2392 2388 2385 2380 2375 2373 2371 2368 2366 2367 2369 2369 2367 2363 2357 2351 2342 2334 2326 2319 2314 2307 2299 2286 2273 2263 2252 2239 2228 2221 2216 2212 2220 2250 2277 2301 2327 2350 2371 2397 2427 2447 2440 2424 2387 2340 2298 2256 2222 2197 2171 2149 2130 2116 2115 2115 2117 2118 2122 2127 2129 2129 2144 2171 2202 2230 2229 2219 2235 2237 2229 2217 2226 2228 2217 2206 2221 2244 2267 2290 2293 2300 2301 2286 2237 2231 2250 2284 2299 2307 2293 2269 2266 2244 2219 2215 2217 2224 2217
2308 2346 2375 2432 2463 2481 2520 2500 2462 2437 2435 2434 2434 2437 2437 2447 2462 2493 2510 2533 2541 2548 2548 2548 2556 2561 2559 2557 2552 2555 2574 2582 2580 2575 2595 2576 2548 2535 2540 2541 2549 2557 2566 2569 2574 2578 2572 2566 2556 2544 2536 2549 2539 2543 2527 2527 2527 2527 2532 2540 2546 2546 2547 2547 2550 2550 2552 2558 2569 2571 2569 2580 2554 2534 2496 2472 2460 2436 2416 2400 2387 2382 2383 2387 2389 2390 2395 2399 2401 2418 2424 2426 2437 2453 2475 2512 2528 2531 2545 2550 2538 2535 2560 2565 2570 2584 2593 2593 2589 2589 2593 2594 2601 2609 2609 2606 2607 2630 2644 2654 2666 2676 2655 2663 2643 2639 2652 2680 2666 2653 2644 2644 2660 2670 2677 2700 2722 2727 2714 2697 2671 2626 2579 2528 2500 2490 2479 2477 2486 2492 2502 2526 2537 2563 2587 2609 2623 2655 2686 2723 2764 2789 2810 2840 2850 2860 2857 2855 2875 2889 2908 2939 2982 3019 3066 3129 3132 3114 3079 3050 3063 3097 3096 3101 3106 3128 3158 3197 3187 3152 3118 3074 3029 2989 2956 2938 2913 2901 2865 2817 2772 2743 2718 2697 2679 2675 2678 2684 2695 2708 2725 2751 2781 2802 2804 2807 2816 2832 2845 2861 2878 2889 2898 2911 2924 2947 2963 2971 2978 2987 2996 3018 3049 3076 3089 3087 3093 3097 3102 3099 3105 3123 3155 3187 3175 3208 3257 3255 3239 3214 3193 3170 3141 3108 3094 3078 3065 3046 3014 3041 3104 3168 3229 3250 3268 3280 3294 3315 3301 3290 3263 3229 3197 3169 3140 3058 2993 2979 2986 3010 3018 3004 2968 2955 2953 2944 2930 2910 2875 2855 2836 2833 2840 2850 2876 2907 2941 2946 2962 2966 2976 3010 3082 3204 3282 3364 3314 3269 3242 3219 3185 3157 3151 3163 3191 3229 3222 3175 3134 3097 3057 3018 2982 2966 2945 2959 2974 2979 2996 3012 3024 3038 3019 2980 2963 2932 2881 2843 2856 2863 2878 2831 2821 2814 2787 2766 2767 2754 2744 2760 2784 2836 2901 2952 2997 3060 3120 3182 3250 3314 3403 3493 3479 3378 3309 3221 3159 3135 3149 3139 3103 3061 3030 2993 2957 2911 2886 2843 2810 2758 2736 2727 2719 2714 2701 2679 2684 2670 2669 2654 2633 2652 2672 2674 2642 2666 2621 2627 2612 2609 2578 2552 2535 2495 2467 2497 2523 2502 2486 2437 2437 2438 2430 2423 2421 2412 2373 2394 2404 2396 2389 2382 2404 2396 2392 2404 2401 2426 2457 2487 2474 2439 2417 2426 2472 2474 2477 2454 2459 2436 2375 2400 2383 2351 2318 2285 2303 2280 2252 2225 2198 2184 2187 2186 2179 2174 2172 2171 2168 2163 2158 2158 2158 2158 2158 2158 2158 2158 2163 2186 2218 2249 2244 2279 2317 2364 2405 2404 2400 2398 2394 2414 2442 2451 2455 2444 2454 2465 2466 2454 2452 2448 2440 2433 2426 2418 2411 2406 2398 2389 2384 2379 2375 2373 2368 2364 2358 2352 2352 2353 2350 2347 2342 2336 2328 2317 2309 2303 2297 2289 2280 2266 2254 2243 2235 2227 2221 2216 2212 2209 2221 2245 2272 2293 2313 2334 2363 2397 2421 2429 2419 2385 2341 2298 2259 2223 2192 2159 2143 2124 2119 2119 2120 2123 2126 2130 2136 2137 2133 2156 2184 2213 2237 2229 2236 2246 2248 2241 2222 2237 2244 2233 2218 2224 2249 2267 2293 2304 2316 2319 2286 2236 2246 2263 2283 2316 2317 2303 2283 2273 2249 2228 2228 2231 2235 2224
2355 2373 2421 2442 2470 2495 2516 2499 2463 2438 2444 2438 2436 2435 2441 2439 2450 2467 2494 2548 2548 2526 2543 2580 2559 2551 2574 2572 2571 2573 2593 2593 2564 2544 2560 2542 2535 2535 2543 2552 2560 2567 2574 2574 2572 2565 2565 2561 2549 2534 2534 2532 2528 2528 2527 2527 2527 2527 2538 2546 2557 2571 2573 2568 2567 2553 2544 2548 2579 2587 2578 2568 2544 2517 2489 2475 2449 2440 2425 2401 2386 2381 2389 2386 2388 2389 2393 2411 2438 2450 2464 2467 2464 2480 2495 2509 2530 2541 2548 2557 2559 2568 2576 2591 2615 2621 2624 2614 2607 2612 2612 2604 2607 2609 2606 2600 2605 2622 2653 2637 2632 2649 2682 2641 2625 2625 2658 2656 2644 2644 2658 2672 2658 2616 2621 2614 2618 2633 2610 2581 2564 2542 2515 2481 2472 2472 2474 2488 2498 2506 2534 2563 2575 2588 2611 2627 2642 2672 2704 2744 2771 2787 2820 2847 2869 2882 2885 2884 2897 2919 2952 2986 3020 3068 3101 3134 3146 3140 3112 3086 3082 3079 3092 3095 3099 3117 3146 3188 3176 3138 3101 3052 3020 2984 2953 2916 2891 2874 2828 2787 2750 2725 2699 2682 2674 2673 2674 2682 2693 2710 2732 2756 2765 2768 2794 2815 2828 2842 2853 2857 2866 2880 2891 2907 2921 2935 2949 2957 2966 2971 2977 2989 3019 3047 3064 3072 3082 3091 3088 3095 3117 3138 3188 3225 3208 3212 3266 3240 3207 3180 3160 3128 3093 3049 3024 3004 2999 2989 2992 3036 3106 3156 3215 3263 3299 3333 3339 3330 3308 3307 3282 3251 3256 3220 3160 3079 3059 3039 3038 3033 3021 2996 2973 2964 2961 2947 2939 2913 2896 2864 2846 2842 2845 2850 2864 2899 2945 2966 2947 2950 2959 2997 3047 3137 3239 3341 3294 3269 3239 3210 3178 3156 3149 3162 3187 3223 3183 3142 3131 3076 3037 3017 3002 2982 2959 2973 3003 3016 3034 3075 3097 3085 3038 2996 2990 2961 2901 2878 2892 2868 2852 2833 2825 2815 2803 2777 2765 2756 2745 2767 2777 2817 2885 2943 2983 3044 3095 3165 3242 3324 3399 3425 3423 3358 3270 3208 3140 3064 3084 3087 3063 3018 2988 2952 2911 2880 2824 2783 2745 2710 2689 2677 2669 2658 2642 2628 2624 2601 2600 2591 2587 2587 2609 2601 2591 2587 2572 2559 2551 2540 2524 2502 2475 2443 2429 2430 2439 2442 2428 2405 2377 2375 2364 2367 2368 2352 2332 2335 2334 2330 2327 2328 2342 2338 2347 2352 2352 2374 2392 2400 2431 2382 2372 2395 2418 2416 2421 2395 2399 2393 2349 2339 2343 2309 2291 2245 2244 2228 2203 2175 2162 2167 2172 2172 2169 2164 2162 2162 2162 2159 2163 2165 2163 2162 2172 2176 2174 2176 2206 2233 2266 2293 2283 2315 2356 2407 2430 2426 2420 2412 2412 2429 2454 2469 2477 2464 2475 2487 2493 2478 2471 2465 2456 2448 2440 2432 2425 2419 2409 2398 2389 2385 2379 2375 2372 2368 2362 2356 2349 2340 2334 2332 2331 2328 2320 2310 2299 2292 2285 2278 2267 2256 2249 2242 2231 2228 2224 2220 2214 2208 2205 2215 2237 2259 2280 2296 2329 2362 2386 2396 2400 2381 2338 2290 2250 2214 2177 2159 2133 2123 2124 2124 2126 2129 2134 2139 2143 2146 2145 2171 2197 2225 2245 2240 2249 2256 2258 2249 2229 2247 2256 2249 2227 2231 2255 2274 2292 2316 2332 2323 2283 2242 2255 2271 2290 2320 2328 2315 2296 2275 2250 2241 2251 2253 2244 2232
2386 2417 2431 2463 2470 2483 2469 2485 2472 2463 2449 2438 2439 2436 2436 2440 2450 2465 2533 2532 2517 2543 2552 2535 2536 2544 2566 2589 2579 2570 2571 2564 2546 2535 2535 2535 2536 2546 2556 2563 2573 2581 2582 2580 2572 2557 2553 2551 2537 2534 2535 2535 2539 2531 2523 2527 2528 2535 2535 2551 2575 2574 2548 2556 2549 2534 2532 2540 2559 2566 2570 2552 2540 2507 2467 2453 2442 2428 2412 2394 2384 2381 2384 2385 2385 2389 2401 2421 2468 2472 2470 2495 2499 2511 2531 2538 2548 2550 2555 2563 2574 2602 2608 2608 2632 2646 2652 2639 2634 2631 2627 2623 2623 2610 2590 2583 2593 2610 2617 2609 2618 2653 2610 2604 2601 2613 2618 2611 2636 2664 2656 2611 2587 2546 2539 2540 2539 2535 2530 2510 2491 2472 2472 2472 2472 2474 2482 2492 2504 2524 2549 2587 2605 2613 2632 2643 2666 2687 2724 2749 2763 2792 2821 2849 2880 2917 2921 2918 2937 2958 2980 3017 3058 3084 3086 3062 3086 3093 3079 3066 3054 3051 3063 3073 3089 3106 3132 3161 3134 3102 3059 3028 2999 2975 2952 2903 2875 2838 2787 2750 2726 2698 2678 2671 2667 2670 2669 2684 2700 2719 2739 2759 2780 2798 2818 2832 2837 2850 2859 2862 2865 2878 2888 2898 2912 2929 2934 2936 2942 2947 2952 2962 2981 3013 3036 3061 3072 3073 3094 3115 3149 3190 3239 3285 3276 3257 3230 3201 3171 3139 3113 3078 3032 3000 2977 2958 2957 2960 2985 3033 3092 3150 3216 3271 3327 3380 3377 3331 3325 3309 3267 3262 3248 3210 3145 3108 3072 3042 3036 3030 3009 2998 2980 2968 2963 2951 2941 2934 2910 2881 2861 2851 2847 2854 2860 2888 2925 2951 2947 2942 2944 2968 3012 3079 3167 3207 3281 3261 3233 3199 3169 3153 3148 3158 3178 3219 3165 3160 3113 3072 3055 3025 3022 3005 2983 2991 3013 3032 3109 3149 3161 3084 3034 3022 3014 3002 2960 2926 2919 2889 2865 2858 2838 2819 2826 2792 2794 2764 2754 2757 2770 2804 2871 2930 2973 3029 3082 3145 3219 3288 3334 3345 3367 3386 3270 3183 3110 3028 3016 3019 3004 2964 2938 2901 2860 2823 2766 2722 2694 2656 2642 2632 2620 2612 2590 2580 2574 2554 2544 2541 2547 2524 2539 2528 2529 2523 2518 2511 2495 2484 2465 2454 2421 2395 2394 2381 2376 2367 2356 2338 2313 2319 2315 2313 2315 2304 2299 2298 2286 2274 2279 2282 2288 2298 2310 2308 2304 2319 2331 2333 2352 2340 2332 2352 2360 2355 2363 2344 2335 2331 2306 2284 2284 2258 2243 2216 2196 2173 2162 2162 2162 2162 2162 2162 2162 2162 2162 2162 2163 2169 2175 2177 2177 2177 2182 2195 2197 2220 2250 2279 2313 2347 2344 2337 2386 2429 2451 2458 2454 2433 2432 2451 2469 2487 2501 2491 2491 2510 2514 2502 2492 2483 2473 2463 2457 2450 2442 2433 2423 2412 2401 2395 2387 2383 2378 2375 2368 2361 2356 2349 2338 2330 2322 2315 2310 2302 2291 2284 2281 2280 2269 2253 2242 2243 2237 2233 2228 2223 2216 2211 2206 2202 2206 2227 2239 2264 2290 2320 2339 2350 2353 2345 2329 2273 2236 2206 2167 2136 2132 2131 2131 2131 2134 2134 2141 2147 2152 2155 2158 2180 2211 2236 2251 2255 2261 2267 2266 2252 2244 2259 2263 2255 2234 2242 2268 2283 2291 2324 2345 2318 2284 2257 2262 2274 2295 2326 2336 2330 2301 2278 2255 2256 2269 2268 2246 2239
2419 2428 2416 2424 2424 2442 2473 2474 2497 2471 2450 2445 2438 2433 2434 2436 2454 2469 2504 2515 2522 2520 2523 2528 2539 2556 2581 2597 2574 2570 2563 2558 2549 2535 2535 2540 2550 2560 2568 2573 2589 2594 2594 2582 2566 2553 2544 2536 2531 2536 2537 2547 2546 2523 2528 2525 2528 2532 2540 2564 2586 2547 2539 2533 2529 2529 2529 2545 2552 2560 2564 2556 2531 2477 2460 2443 2425 2413 2414 2388 2381 2381 2381 2389 2381 2384 2397 2427 2449 2451 2471 2499 2513 2530 2545 2560 2560 2555 2557 2565 2584 2626 2642 2642 2653 2672 2657 2645 2643 2658 2654 2635 2612 2592 2569 2562 2585 2583 2581 2596 2622 2558 2555 2537 2573 2549 2597 2612 2646 2555 2535 2534 2518 2500 2484 2492 2491 2488 2462 2462 2470 2475 2484 2493 2495 2502 2506 2522 2530 2549 2574 2609 2627 2639 2647 2665 2682 2717 2738 2756 2776 2806 2826 2864 2911 2960 2955 2955 2963 2977 3002 3031 3058 3048 3034 3019 3033 3044 3045 3044 3030 3033 3048 3058 3079 3097 3118 3084 3076 3075 3032 3007 2988 2950 2937 2885 2851 2808 2762 2730 2702 2672 2657 2657 2657 2661 2665 2685 2703 2726 2756 2780 2797 2812 2831 2842 2849 2860 2869 2875 2876 2877 2881 2889 2900 2907 2913 2921 2924 2935 2942 2948 2962 2991 3015 3035 3059 3075 3104 3132 3193 3246 3298 3334 3282 3241 3201 3165 3135 3097 3060 3023 2987 2961 2945 2939 2937 2946 2979 3024 3083 3144 3210 3273 3335 3401 3374 3338 3332 3314 3277 3267 3237 3194 3141 3112 3063 3028 3022 3016 3011 3002 2978 2966 2958 2952 2939 2939 2916 2904 2890 2863 2860 2856 2868 2882 2895 2920 2949 2937 2936 2954 2978 3023 3092 3184 3265 3249 3222 3186 3161 3144 3140 3153 3172 3187 3159 3136 3093 3105 3078 3045 3053 3032 3010 3010 3017 3047 3133 3222 3143 3078 3042 3053 3052 3030 3014 2987 2936 2940 2920 2887 2848 2837 2844 2812 2820 2805 2770 2758 2761 2795 2843 2901 2958 3011 3067 3120 3182 3244 3274 3301 3318 3332 3247 3153 3066 3001 2947 2957 2943 2910 2879 2856 2802 2727 2700 2652 2641 2609 2594 2590 2576 2564 2544 2536 2524 2507 2497 2501 2509 2500 2480 2462 2467 2463 2466 2469 2451 2440 2406 2398 2385 2370 2358 2344 2323 2317 2302 2292 2287 2285 2285 2275 2277 2271 2272 2276 2267 2252 2251 2253 2260 2275 2280 2277 2269 2272 2281 2280 2289 2291 2280 2298 2301 2298 2297 2288 2277 2270 2253 2251 2228 2211 2187 2169 2164 2162 2162 2162 2162 2162 2162 2162 2162 2162 2162 2163 2169 2178 2186 2189 2188 2186 2196 2213 2238 2267 2302 2336 2364 2395 2397 2373 2395 2425 2452 2482 2491 2461 2452 2470 2485 2507 2525 2517 2500 2528 2536 2523 2512 2501 2491 2482 2474 2470 2464 2449 2445 2433 2420 2410 2401 2393 2389 2384 2377 2372 2367 2361 2356 2349 2340 2333 2321 2314 2304 2291 2279 2267 2262 2261 2260 2257 2251 2246 2238 2230 2221 2216 2210 2204 2196 2198 2211 2229 2252 2274 2291 2305 2304 2293 2277 2241 2216 2187 2154 2140 2139 2138 2138 2138 2140 2143 2149 2157 2159 2161 2171 2193 2220 2248 2259 2264 2269 2274 2273 2258 2260 2273 2270 2259 2240 2245 2274 2290 2301 2334 2350 2317 2280 2269 2267 2283 2300 2332 2348 2343 2309 2283 2267 2271 2279 2269 2252 2248
2419 2417 2413 2413 2425 2438 2449 2458 2474 2470 2458 2447 2436 2430 2435 2443 2462 2500 2519 2529 2529 2528 2535 2539 2549 2559 2573 2573 2584 2588 2579 2557 2536 2535 2539 2558 2570 2575 2579 2590 2599 2599 2590 2577 2561 2549 2536 2524 2524 2524 2524 2524 2533 2524 2523 2523 2523 2532 2537 2548 2547 2542 2535 2534 2534 2529 2529 2540 2536 2541 2560 2545 2524 2496 2463 2446 2417 2395 2387 2381 2381 2381 2381 2381 2381 2381 2393 2412 2424 2442 2470 2486 2520 2549 2549 2553 2556 2557 2558 2568 2601 2613 2643 2642 2632 2660 2653 2646 2622 2639 2619 2580 2569 2545 2549 2548 2541 2560 2568 2571 2553 2504 2492 2490 2490 2513 2561 2556 2502 2470 2473 2489 2451 2437 2440 2441 2445 2457 2476 2490 2505 2528 2532 2539 2543 2538 2548 2551 2570 2576 2597 2613 2632 2660 2676 2690 2708 2744 2754 2766 2784 2812 2836 2879 2944 2975 2987 2984 2987 2993 3007 3034 3042 3034 3012 2991 2996 2997 3008 3026 3007 3010 3028 3048 3070 3089 3092 3058 3032 3024 3010 3002 2970 2946 2900 2859 2830 2791 2749 2712 2682 2657 2654 2655 2656 2657 2667 2681 2705 2729 2755 2775 2797 2820 2841 2856 2865 2877 2889 2895 2896 2893 2893 2896 2899 2902 2908 2919 2926 2937 2942 2947 2960 2988 3006 3024 3045 3087 3124 3171 3231 3287 3343 3310 3254 3208 3169 3120 3096 3052 3010 2982 2948 2934 2933 2934 2936 2954 2987 3033 3090 3143 3206 3278 3344 3416 3378 3347 3334 3321 3294 3271 3240 3180 3127 3085 3050 3028 3021 3026 3050 3007 2979 2971 2963 2949 2950 2939 2934 2929 2908 2887 2876 2867 2880 2886 2905 2928 2921 2928 2933 2937 2963 2998 3032 3129 3214 3226 3200 3168 3146 3133 3128 3138 3152 3154 3133 3115 3132 3131 3100 3090 3091 3073 3031 3030 3035 3055 3124 3202 3170 3106 3068 3090 3084 3067 3060 3005 2954 2966 2948 2910 2873 2859 2853 2823 2828 2823 2781 2778 2779 2783 2830 2886 2938 2986 3037 3088 3136 3191 3217 3247 3273 3241 3165 3101 3049 2967 2907 2888 2874 2848 2812 2787 2743 2689 2648 2610 2592 2564 2551 2546 2538 2521 2507 2494 2482 2473 2465 2463 2469 2463 2443 2419 2421 2414 2416 2420 2399 2381 2361 2355 2348 2345 2338 2323 2307 2294 2283 2275 2271 2260 2259 2255 2252 2252 2255 2256 2249 2241 2237 2238 2245 2250 2250 2248 2242 2228 2227 2221 2236 2245 2237 2237 2239 2233 2231 2225 2221 2211 2215 2216 2199 2176 2162 2162 2162 2162 2162 2162 2162 2162 2162 2162 2162 2162 2162 2168 2178 2188 2198 2204 2200 2206 2227 2235 2266 2312 2349 2383 2410 2426 2422 2425 2428 2435 2447 2490 2523 2502 2462 2490 2505 2529 2550 2542 2518 2546 2558 2546 2524 2513 2506 2500 2497 2494 2483 2462 2457 2452 2438 2424 2417 2407 2402 2396 2391 2385 2381 2379 2379 2373 2361 2348 2339 2329 2319 2311 2299 2289 2282 2281 2279 2270 2265 2260 2250 2239 2229 2221 2214 2209 2203 2195 2194 2199 2219 2236 2251 2256 2251 2243 2230 2206 2182 2161 2144 2148 2147 2145 2146 2145 2147 2149 2158 2166 2169 2171 2175 2202 2227 2256 2266 2272 2278 2282 2281 2266 2274 2285 2282 2268 2248 2266 2266 2290 2309 2343 2348 2315 2289 2283 2267 2284 2303 2338 2361 2349 2314 2289 2276 2281 2284 2267 2264 2261
2413 2413 2413 2414 2424 2441 2450 2467 2481 2467 2453 2435 2427 2426 2438 2451 2503 2519 2537 2542 2543 2546 2551 2543 2542 2545 2588 2609 2605 2584 2562 2547 2535 2535 2563 2580 2584 2571 2595 2603 2568 2561 2583 2568 2553 2534 2524 2524 2524 2524 2524 2524 2526 2524 2523 2523 2523 2535 2543 2549 2546 2538 2524 2528 2532 2529 2538 2538 2532 2549 2556 2551 2536 2502 2471 2440 2402 2387 2381 2381 2381 2381 2381 2381 2381 2391 2404 2412 2428 2435 2451 2490 2509 2532 2549 2562 2565 2563 2565 2575 2584 2591 2621 2635 2647 2630 2595 2586 2580 2586 2562 2535 2533 2532 2532 2524 2506 2522 2513 2494 2464 2455 2447 2442 2451 2461 2449 2456 2428 2416 2419 2419 2424 2442 2450 2461 2480 2491 2507 2527 2562 2587 2602 2596 2600 2599 2584 2592 2605 2605 2622 2637 2660 2680 2698 2720 2727 2755 2773 2786 2812 2829 2868 2900 2943 2964 2971 2975 2976 2982 2977 2976 2983 2982 2974 2963 2966 2990 3011 3010 2993 2993 3016 3040 3058 3074 3098 3079 3045 3026 2996 2984 2961 2939 2892 2837 2811 2771 2731 2701 2675 2656 2653 2653 2656 2657 2671 2688 2706 2732 2752 2777 2797 2821 2851 2873 2885 2906 2925 2934 2913 2913 2917 2915 2920 2924 2926 2945 2950 2968 2963 2957 2964 2980 2988 3008 3057 3094 3144 3200 3269 3331 3340 3276 3222 3182 3129 3085 3041 3001 2979 2952 2932 2931 2931 2931 2936 2964 3000 3058 3105 3151 3217 3290 3362 3432 3399 3362 3345 3337 3297 3265 3228 3199 3131 3087 3062 3035 3045 3051 3085 3041 2997 2991 2977 2950 2948 2948 2955 2942 2933 2930 2911 2917 2920 2924 2959 2946 2925 2926 2931 2935 2947 2970 3007 3083 3162 3190 3167 3145 3133 3118 3111 3124 3135 3132 3127 3136 3165 3150 3148 3137 3139 3119 3067 3059 3063 3073 3115 3185 3192 3135 3121 3130 3124 3117 3083 3024 2991 2989 2965 2932 2909 2882 2856 2837 2829 2821 2806 2789 2786 2779 2815 2861 2915 2968 3013 3060 3107 3142 3168 3197 3219 3235 3142 3046 2988 2937 2878 2826 2820 2788 2757 2724 2697 2656 2621 2586 2552 2536 2518 2512 2501 2484 2473 2459 2450 2444 2440 2435 2434 2432 2421 2401 2388 2382 2377 2377 2363 2339 2330 2322 2323 2325 2322 2312 2296 2287 2278 2268 2259 2252 2241 2241 2240 2237 2243 2241 2237 2230 2227 2228 2230 2233 2230 2227 2221 2211 2194 2186 2189 2196 2206 2209 2190 2182 2172 2173 2176 2167 2180 2180 2167 2162 2162 2162 2162 2162 2162 2162 2162 2162 2162 2162 2162 2162 2163 2170 2181 2198 2211 2219 2218 2240 2272 2271 2278 2319 2377 2420 2426 2429 2446 2456 2456 2456 2475 2502 2538 2530 2496 2506 2531 2552 2575 2564 2534 2560 2574 2565 2546 2532 2523 2517 2517 2515 2497 2478 2468 2463 2455 2441 2429 2420 2415 2410 2405 2398 2394 2397 2397 2387 2370 2361 2354 2345 2340 2330 2323 2311 2308 2303 2296 2279 2283 2275 2262 2250 2241 2228 2223 2217 2210 2202 2195 2189 2182 2198 2213 2218 2211 2201 2184 2159 2151 2149 2151 2155 2156 2154 2154 2154 2157 2160 2170 2178 2183 2180 2177 2201 2229 2257 2271 2279 2290 2293 2289 2279 2285 2295 2294 2277 2260 2280 2286 2286 2317 2352 2346 2318 2299 2297 2279 2288 2305 2339 2368 2350 2332 2302 2290 2295 2289 2278 2280 2274
2419 2426 2421 2426 2433 2449 2463 2470 2464 2446 2432 2423 2411 2426 2426 2462 2501 2530 2550 2557 2562 2560 2540 2522 2549 2574 2606 2614 2588 2565 2545 2531 2529 2535 2557 2570 2586 2581 2573 2558 2558 2560 2569 2561 2548 2536 2524 2524 2524 2524 2524 2524 2524 2524 2525 2523 2537 2548 2550 2553 2547 2535 2523 2523 2542 2517 2529 2510 2511 2512 2522 2533 2528 2502 2456 2428 2400 2383 2381 2381 2381 2381 2390 2381 2389 2401 2410 2430 2446 2461 2467 2485 2509 2532 2556 2574 2572 2571 2578 2586 2571 2595 2613 2620 2626 2577 2551 2551 2555 2552 2537 2530 2516 2525 2509 2501 2477 2478 2467 2463 2434 2428 2424 2430 2418 2409 2409 2405 2410 2419 2427 2437 2445 2467 2491 2504 2520 2541 2556 2580 2600 2652 2654 2649 2652 2633 2622 2619 2627 2632 2646 2656 2680 2702 2724 2733 2748 2767 2798 2815 2840 2873 2900 2925 2945 2960 2956 2955 2953 2952 2947 2946 2942 2946 2948 2939 2938 2989 3016 2991 2981 2991 3007 3028 3051 3076 3105 3115 3070 3024 2985 2979 2955 2917 2864 2817 2772 2738 2713 2689 2662 2654 2651 2653 2656 2671 2670 2693 2715 2733 2753 2772 2796 2821 2856 2882 2904 2934 2950 2942 2932 2937 2939 2933 2938 2953 2962 2977 3005 3005 2982 2979 2983 2997 3005 3025 3068 3112 3163 3241 3307 3327 3276 3248 3189 3139 3095 3039 3001 2971 2949 2937 2931 2931 2931 2931 2939 2966 3018 3073 3124 3178 3244 3318 3378 3455 3416 3404 3372 3343 3329 3274 3245 3231 3179 3105 3090 3068 3082 3084 3131 3090 3059 3059 3030 2986 2968 2976 2990 2990 2973 2980 2976 2970 2955 2984 3032 2983 2961 2939 2934 2931 2937 2950 2987 3039 3136 3167 3144 3128 3117 3099 3093 3105 3111 3109 3122 3143 3168 3184 3201 3191 3192 3152 3109 3095 3081 3092 3128 3177 3192 3160 3163 3173 3163 3124 3074 3052 3012 3013 2999 2967 2924 2905 2862 2849 2828 2816 2810 2806 2801 2786 2809 2850 2900 2958 3001 3033 3072 3102 3128 3142 3172 3188 3094 3014 2952 2901 2847 2796 2752 2731 2703 2683 2662 2632 2584 2548 2526 2504 2490 2479 2469 2453 2440 2423 2415 2410 2405 2406 2403 2399 2399 2385 2368 2361 2349 2341 2327 2316 2310 2307 2309 2309 2305 2297 2288 2280 2270 2261 2252 2245 2235 2229 2229 2228 2231 2230 2229 2223 2217 2218 2218 2219 2216 2212 2206 2197 2188 2179 2171 2168 2174 2181 2168 2162 2162 2162 2162 2162 2162 2162 2162 2162 2162 2162 2162 2162 2162 2162 2162 2162 2162 2162 2164 2172 2175 2180 2192 2204 2220 2234 2245 2289 2322 2330 2294 2321 2373 2430 2443 2453 2492 2501 2499 2494 2503 2535 2558 2558 2531 2526 2555 2578 2597 2590 2561 2572 2591 2586 2573 2557 2546 2536 2541 2535 2525 2510 2487 2475 2468 2457 2440 2432 2426 2422 2418 2412 2409 2416 2414 2396 2376 2372 2368 2368 2363 2353 2349 2337 2338 2331 2313 2300 2301 2291 2279 2265 2249 2237 2233 2226 2217 2210 2203 2197 2188 2179 2179 2176 2168 2156 2156 2156 2155 2156 2160 2163 2163 2162 2163 2164 2168 2172 2182 2192 2201 2195 2182 2200 2224 2250 2271 2284 2295 2302 2300 2291 2296 2303 2302 2285 2273 2296 2300 2292 2317 2355 2349 2321 2318 2311 2298 2297 2312 2340 2372 2380 2357 2322 2303 2308 2298 2294 2294 2279
2460 2448 2437 2438 2439 2448 2460 2460 2441 2422 2413 2408 2401 2405 2424 2462 2503 2539 2552 2555 2560 2526 2512 2538 2566 2598 2607 2591 2572 2546 2526 2521 2536 2538 2530 2536 2557 2566 2556 2555 2556 2558 2562 2560 2551 2534 2525 2524 2538 2537 2531 2533 2537 2533 2523 2524 2533 2523 2533 2539 2535 2524 2512 2521 2502 2506 2509 2485 2491 2487 2506 2497 2470 2455 2440 2426 2394 2381 2381 2381 2381 2381 2390 2387 2400 2430 2439 2451 2470 2475 2490 2500 2517 2540 2554 2581 2587 2587 2573 2566 2557 2582 2607 2606 2569 2548 2547 2549 2559 2560 2529 2518 2501 2500 2499 2487 2466 2461 2441 2412 2409 2404 2409 2413 2401 2401 2404 2411 2428 2446 2450 2462 2480 2500 2535 2552 2567 2585 2595 2609 2627 2657 2675 2684 2672 2669 2658 2653 2652 2656 2655 2669 2696 2710 2715 2726 2750 2781 2813 2834 2869 2917 2930 2934 2940 2948 2942 2936 2930 2925 2922 2920 2919 2921 2925 2930 2935 2970 2995 2978 2971 2980 2997 3023 3051 3086 3125 3107 3033 2985 2981 2978 2941 2894 2841 2799 2758 2726 2695 2672 2656 2647 2648 2657 2660 2670 2676 2697 2718 2738 2758 2778 2801 2831 2862 2892 2924 2959 2978 2955 2953 2960 2969 2968 2973 3000 3019 3035 3048 3041 3013 3011 3019 3030 3040 3049 3092 3144 3215 3301 3306 3250 3222 3203 3152 3101 3053 3009 2974 2947 2937 2931 2931 2931 2931 2934 2949 2984 3033 3092 3151 3222 3283 3348 3418 3484 3432 3392 3377 3362 3375 3292 3257 3232 3190 3152 3122 3121 3134 3122 3170 3164 3126 3114 3071 3032 2995 3012 3032 3048 3036 3039 3037 3008 3041 3041 3063 3042 3009 2991 2950 2938 2934 2950 3001 3037 3114 3145 3123 3107 3094 3083 3075 3087 3091 3092 3105 3139 3177 3215 3269 3238 3229 3198 3171 3141 3121 3110 3148 3189 3215 3205 3216 3236 3153 3108 3082 3081 3025 3023 3010 2970 2938 2900 2868 2839 2828 2820 2819 2821 2809 2792 2813 2850 2876 2938 2981 3022 3051 3071 3091 3098 3123 3083 2981 2952 2921 2869 2811 2776 2737 2706 2663 2638 2629 2604 2564 2510 2491 2479 2467 2455 2438 2422 2401 2394 2388 2388 2385 2385 2384 2379 2379 2368 2357 2345 2335 2324 2313 2303 2298 2297 2298 2297 2295 2289 2277 2270 2263 2254 2244 2235 2229 2225 2222 2220 2219 2219 2220 2226 2205 2206 2203 2202 2203 2196 2192 2187 2181 2175 2169 2165 2162 2162 2162 2162 2162 2162 2162 2162 2162 2162 2162 2162 2162 2162 2162 2162 2162 2162 2162 2162 2162 2170 2182 2191 2198 2220 2226 2235 2245 2267 2258 2311 2357 2378 2337 2363 2377 2438 2456 2486 2527 2546 2545 2540 2538 2568 2587 2585 2561 2571 2585 2598 2615 2613 2594 2573 2608 2605 2590 2576 2565 2562 2571 2559 2547 2538 2521 2503 2483 2469 2455 2446 2440 2434 2428 2424 2422 2423 2416 2399 2393 2386 2383 2388 2381 2371 2369 2361 2359 2345 2325 2323 2320 2308 2294 2281 2266 2247 2245 2236 2228 2220 2212 2204 2198 2191 2187 2181 2179 2172 2172 2173 2171 2172 2172 2172 2171 2169 2172 2173 2179 2186 2198 2213 2223 2219 2197 2200 2217 2244 2270 2290 2302 2309 2309 2304 2311 2316 2308 2290 2288 2310 2311 2298 2323 2360 2357 2336 2331 2332 2312 2302 2323 2337 2366 2394 2373 2343 2319 2321 2304 2309 2300 2291
